0.10233490E+004  0.10228460E+004  0.10224470E+004  0.10219570E+004  0.10213370E+004  0.10208270E+004  0.10205100E+004  0.10201360E+004  0.10197430E+004  0.10196440E+004  0.10184140E+004  0.10158960E+004  0.10126300E+004  0.10097920E+004  0.10092190E+004  0.10111270E+004  0.10190220E+004  0.10278370E+004  0.10374270E+004  0.10499580E+004  0.10630770E+004  0.10701210E+004  0.10720270E+004  0.10729000E+004  0.10724250E+004  0.10683890E+004  0.10623910E+004  0.10568149E+004  0.10531260E+004  0.10505959E+004  0.10485649E+004  0.10478340E+004  0.10498590E+004  0.10507080E+004  0.10415590E+004  0.10201910E+004  0.99964502E+003  0.98858502E+003  0.98757599E+003  0.99057397E+003  0.99206500E+003  0.99335498E+003  0.99801898E+003  0.10053950E+004  0.10113120E+004  0.10133550E+004  0.10150080E+004  0.10208180E+004  0.10326390E+004  0.10481030E+004  0.10600660E+004  0.10662729E+004  0.10670310E+004  0.10643420E+004  0.10626050E+004  0.10626710E+004  0.10618740E+004  0.10578260E+004  0.10496790E+004  0.10399690E+004  0.10312510E+004  0.10237560E+004  0.10178900E+004  0.10155930E+004
0.10209000E+004  0.10215510E+004  0.10221040E+004  0.10216510E+004  0.10205140E+004  0.10198310E+004  0.10195520E+004  0.10190100E+004  0.10179870E+004  0.10168160E+004  0.10149560E+004  0.10116210E+004  0.10084650E+004  0.10068790E+004  0.10083220E+004  0.10116750E+004  0.10195580E+004  0.10279260E+004  0.10373820E+004  0.10508590E+004  0.10641429E+004  0.10708400E+004  0.10729470E+004  0.10738160E+004  0.10728510E+004  0.10688361E+004  0.10632550E+004  0.10584500E+004  0.10547330E+004  0.10524730E+004  0.10507220E+004  0.10495380E+004  0.10498320E+004  0.10497900E+004  0.10414410E+004  0.10242581E+004  0.10048540E+004  0.98914502E+003  0.98557202E+003  0.99039301E+003  0.99425000E+003  0.99564099E+003  0.99828400E+003  0.10037950E+004  0.10086090E+004  0.10104000E+004  0.10119690E+004  0.10175060E+004  0.10301460E+004  0.10469000E+004  0.10590460E+004  0.10648400E+004  0.10660850E+004  0.10644850E+004  0.10633220E+004  0.10622690E+004  0.10592460E+004  0.10513650E+004  0.10397030E+004  0.10303400E+004  0.10248320E+004  0.10205910E+004  0.10170220E+004  0.10154080E+004
0.10202810E+004  0.10203810E+004  0.10214330E+004  0.10209530E+004  0.10198980E+004  0.10191900E+004  0.10186640E+004  0.10175880E+004  0.10159630E+004  0.10139030E+004  0.10111570E+004  0.10077980E+004  0.10044970E+004  0.10033620E+004  0.10063730E+004  0.10116560E+004  0.10203640E+004  0.10285660E+004  0.10377480E+004  0.10508820E+004  0.10638900E+004  0.10709930E+004  0.10737850E+004  0.10744960E+004  0.10730950E+004  0.10701470E+004  0.10658690E+004  0.10612430E+004  0.10577321E+004  0.10551169E+004  0.10533840E+004  0.10511270E+004  0.10494680E+004  0.10488409E+004  0.10447570E+004  0.10355770E+004  0.10173650E+004  0.99446301E+003  0.98578400E+003  0.99139398E+003  0.99669299E+003  0.99856403E+003  0.10003980E+004  0.10037920E+004  0.10067340E+004  0.10082370E+004  0.10106430E+004  0.10172430E+004  0.10306960E+004  0.10477260E+004  0.10595950E+004  0.10642340E+004  0.10651970E+004  0.10644709E+004  0.10634301E+004  0.10607260E+004  0.10539940E+004  0.10420260E+004  0.10293311E+004  0.10233300E+004  0.10224030E+004  0.10206120E+004  0.10184460E+004  0.10172070E+004
0.10202100E+004  0.10191150E+004  0.10202280E+004  0.10198300E+004  0.10191150E+004  0.10184520E+004  0.10177700E+004  0.10162440E+004  0.10138430E+004  0.10110680E+004  0.10078750E+004  0.10044540E+004  0.10016820E+004  0.10016650E+004  0.10050410E+004  0.10126910E+004  0.10222310E+004  0.10302520E+004  0.10380980E+004  0.10500510E+004  0.10631689E+004  0.10709160E+004  0.10739170E+004  0.10741920E+004  0.10730341E+004  0.10710000E+004  0.10676630E+004  0.10637520E+004  0.10603750E+004  0.10572600E+004  0.10543650E+004  0.10515370E+004  0.10489460E+004  0.10482321E+004  0.10482290E+004  0.10455980E+004  0.10298430E+004  0.10022230E+004  0.98820203E+003  0.99287402E+003  0.99908301E+003  0.10011120E+004  0.10023410E+004  0.10041980E+004  0.10055780E+004  0.10066610E+004  0.10102220E+004  0.10178100E+004  0.10315730E+004  0.10484700E+004  0.10593230E+004  0.10631300E+004  0.10639470E+004  0.10637710E+004  0.10627260E+004  0.10582850E+004  0.10470110E+004  0.10320950E+004  0.10219690E+004  0.10204780E+004  0.10222600E+004  0.10218110E+004  0.10199520E+004  0.10189680E+004
0.10196970E+004  0.10193480E+004  0.10195350E+004  0.10193480E+004  0.10184620E+004  0.10176340E+004  0.10168810E+004  0.10151570E+004  0.10122470E+004  0.10090230E+004  0.10057270E+004  0.10022310E+004  0.10005060E+004  0.10022720E+004  0.10064940E+004  0.10150570E+004  0.10249240E+004  0.10319659E+004  0.10381949E+004  0.10486940E+004  0.10620980E+004  0.10707230E+004  0.10735690E+004  0.10738300E+004  0.10725400E+004  0.10708610E+004  0.10687330E+004  0.10658510E+004  0.10622990E+004  0.10583270E+004  0.10546260E+004  0.10515060E+004  0.10486840E+004  0.10485620E+004  0.10509900E+004  0.10521390E+004  0.10405090E+004  0.10135670E+004  0.99533099E+003  0.99661200E+003  0.10020780E+004  0.10035790E+004  0.10036480E+004  0.10041380E+004  0.10049360E+004  0.10062710E+004  0.10100590E+004  0.10179250E+004  0.10313860E+004  0.10470439E+004  0.10570400E+004  0.10606410E+004  0.10620601E+004  0.10622770E+004  0.10617040E+004  0.10567570E+004  0.10427020E+004  0.10267380E+004  0.10191900E+004  0.10204940E+004  0.10233430E+004  0.10226200E+004  0.10201330E+004  0.10191890E+004
0.10212330E+004  0.10196780E+004  0.10190960E+004  0.10188330E+004  0.10181770E+004  0.10170640E+004  0.10159190E+004  0.10140030E+004  0.10113660E+004  0.10084150E+004  0.10052050E+004  0.10022610E+004  0.10015790E+004  0.10047710E+004  0.10084770E+004  0.10181160E+004  0.10274800E+004  0.10339110E+004  0.10386460E+004  0.10476860E+004  0.10609919E+004  0.10708420E+004  0.10743530E+004  0.10740710E+004  0.10727040E+004  0.10711260E+004  0.10700400E+004  0.10684700E+004  0.10644919E+004  0.10593810E+004  0.10552590E+004  0.10517620E+004  0.10495000E+004  0.10503030E+004  0.10542400E+004  0.10575790E+004  0.10504900E+004  0.10277100E+004  0.10071840E+004  0.10031350E+004  0.10058620E+004  0.10059660E+004  0.10044030E+004  0.10038890E+004  0.10047680E+004  0.10063620E+004  0.10095810E+004  0.10170620E+004  0.10296479E+004  0.10436801E+004  0.10531440E+004  0.10574091E+004  0.10594490E+004  0.10601379E+004  0.10604041E+004  0.10570780E+004  0.10454830E+004  0.10302800E+004  0.10213080E+004  0.10215510E+004  0.10240570E+004  0.10225790E+004  0.10190450E+004  0.10178800E+004
0.10225300E+004  0.10208500E+004  0.10190540E+004  0.10188380E+004  0.10179830E+004  0.10166770E+004  0.10148280E+004  0.10128950E+004  0.10107600E+004  0.10083860E+004  0.10061690E+004  0.10043030E+004  0.10044850E+004  0.10078220E+004  0.10121860E+004  0.10215350E+004  0.10304250E+004  0.10359840E+004  0.10401290E+004  0.10478580E+004  0.10602150E+004  0.10708240E+004  0.10753500E+004  0.10755720E+004  0.10738030E+004  0.10723340E+004  0.10719041E+004  0.10709880E+004  0.10676500E+004  0.10621429E+004  0.10573370E+004  0.10538010E+004  0.10523781E+004  0.10542020E+004  0.10587090E+004  0.10625100E+004  0.10577581E+004  0.10394270E+004  0.10190310E+004  0.10109220E+004  0.10101440E+004  0.10082280E+004  0.10051070E+004  0.10035080E+004  0.10044410E+004  0.10061280E+004  0.10087410E+004  0.10151900E+004  0.10261680E+004  0.10387690E+004  0.10482390E+004  0.10537000E+004  0.10565980E+004  0.10579910E+004  0.10591870E+004  0.10584640E+004  0.10521820E+004  0.10392050E+004  0.10263459E+004  0.10226910E+004  0.10236280E+004  0.10209740E+004  0.10166920E+004  0.10154980E+004
0.10229800E+004  0.10219400E+004  0.10209190E+004  0.10199900E+004  0.10186480E+004  0.10165880E+004  0.10140870E+004  0.10118500E+004  0.10099070E+004  0.10078930E+004  0.10067900E+004  0.10065900E+004  0.10073230E+004  0.10102010E+004  0.10156820E+004  0.10255620E+004  0.10338580E+004  0.10384390E+004  0.10414110E+004  0.10478230E+004  0.10591530E+004  0.10697640E+004  0.10754860E+004  0.10765520E+004  0.10750990E+004  0.10737360E+004  0.10737660E+004  0.10734440E+004  0.10711010E+004  0.10666429E+004  0.10618400E+004  0.10587720E+004  0.10579080E+004  0.10595770E+004  0.10627860E+004  0.10652440E+004  0.10607690E+004  0.10452419E+004  0.10272640E+004  0.10172010E+004  0.10135750E+004  0.10103150E+004  0.10061940E+004  0.10039560E+004  0.10041540E+004  0.10055250E+004  0.10079960E+004  0.10129070E+004  0.10216130E+004  0.10327710E+004  0.10435830E+004  0.10512510E+004  0.10554760E+004  0.10575620E+004  0.10592340E+004  0.10602760E+004  0.10575150E+004  0.10468220E+004  0.10328650E+004  0.10258630E+004  0.10232720E+004  0.10184400E+004  0.10135420E+004  0.10130110E+004
0.10226120E+004  0.10225210E+004  0.10220400E+004  0.10210650E+004  0.10196020E+004  0.10173020E+004  0.10144350E+004  0.10115150E+004  0.10087240E+004  0.10069230E+004  0.10069540E+004  0.10077070E+004  0.10085390E+004  0.10109070E+004  0.10174230E+004  0.10287380E+004  0.10370330E+004  0.10403770E+004  0.10423051E+004  0.10475840E+004  0.10572670E+004  0.10674390E+004  0.10741320E+004  0.10761610E+004  0.10754510E+004  0.10748051E+004  0.10748979E+004  0.10752240E+004  0.10738400E+004  0.10707380E+004  0.10674620E+004  0.10653940E+004  0.10644210E+004  0.10642330E+004  0.10651930E+004  0.10660031E+004  0.10616530E+004  0.10487700E+004  0.10330680E+004  0.10215170E+004  0.10151790E+004  0.10109630E+004  0.10072510E+004  0.10049240E+004  0.10041880E+004  0.10050090E+004  0.10072080E+004  0.10105100E+004  0.10167840E+004  0.10275540E+004  0.10409470E+004  0.10517700E+004  0.10574771E+004  0.10601270E+004  0.10618820E+004  0.10630460E+004  0.10611340E+004  0.10530970E+004  0.10411810E+004  0.10327090E+004  0.10261740E+004  0.10177160E+004  0.10113410E+004  0.10107590E+004
0.10227970E+004  0.10222090E+004  0.10214620E+004  0.10205610E+004  0.10194670E+004  0.10181280E+004  0.10159700E+004  0.10123660E+004  0.10086440E+004  0.10063810E+004  0.10067490E+004  0.10085140E+004  0.10095940E+004  0.10116090E+004  0.10192180E+004  0.10310790E+004  0.10392120E+004  0.10422760E+004  0.10437180E+004  0.10478781E+004  0.10556949E+004  0.10646520E+004  0.10714910E+004  0.10739550E+004  0.10739980E+004  0.10742330E+004  0.10752830E+004  0.10762520E+004  0.10759180E+004  0.10740900E+004  0.10722960E+004  0.10708970E+004  0.10692810E+004  0.10674200E+004  0.10665551E+004  0.10663790E+004  0.10629050E+004  0.10533900E+004  0.10393311E+004  0.10251200E+004  0.10154190E+004  0.10100700E+004  0.10070660E+004  0.10056380E+004  0.10048030E+004  0.10046830E+004  0.10060870E+004  0.10077980E+004  0.10122200E+004  0.10230920E+004  0.10386370E+004  0.10520870E+004  0.10592390E+004  0.10626840E+004  0.10644800E+004  0.10650699E+004  0.10637170E+004  0.10586030E+004  0.10500660E+004  0.10414460E+004  0.10314130E+004  0.10188810E+004  0.10108540E+004  0.10099470E+004
0.10224420E+004  0.10209280E+004  0.10194460E+004  0.10188150E+004  0.10185280E+004  0.10183190E+004  0.10174810E+004  0.10144620E+004  0.10096470E+004  0.10062670E+004  0.10070100E+004  0.10099940E+004  0.10125860E+004  0.10135700E+004  0.10228150E+004  0.10340370E+004  0.10413280E+004  0.10443340E+004  0.10461760E+004  0.10492620E+004  0.10546570E+004  0.10617340E+004  0.10677570E+004  0.10700909E+004  0.10703210E+004  0.10716210E+004  0.10744940E+004  0.10772850E+004  0.10782390E+004  0.10776180E+004  0.10760200E+004  0.10743480E+004  0.10717390E+004  0.10691300E+004  0.10675210E+004  0.10665050E+004  0.10645630E+004  0.10582820E+004  0.10453361E+004  0.10287920E+004  0.10162420E+004  0.10097050E+004  0.10069280E+004  0.10061590E+004  0.10054310E+004  0.10050480E+004  0.10051310E+004  0.10054360E+004  0.10078920E+004  0.10167850E+004  0.10307440E+004  0.10442780E+004  0.10532111E+004  0.10582760E+004  0.10615930E+004  0.10628370E+004  0.10627000E+004  0.10606100E+004  0.10551650E+004  0.10462330E+004  0.10335040E+004  0.10192470E+004  0.10106530E+004  0.10100960E+004
0.10212040E+004  0.10192730E+004  0.10173670E+004  0.10169440E+004  0.10176530E+004  0.10186820E+004  0.10188400E+004  0.10167720E+004  0.10116260E+004  0.10070210E+004  0.10077220E+004  0.10123450E+004  0.10160970E+004  0.10192280E+004  0.10274821E+004  0.10372510E+004  0.10437000E+004  0.10464969E+004  0.10484000E+004  0.10504420E+004  0.10536230E+004  0.10584910E+004  0.10629490E+004  0.10651639E+004  0.10660460E+004  0.10681420E+004  0.10731300E+004  0.10778640E+004  0.10809250E+004  0.10816100E+004  0.10800710E+004  0.10772340E+004  0.10740310E+004  0.10708929E+004  0.10682340E+004  0.10668700E+004  0.10657050E+004  0.10616660E+004  0.10503300E+004  0.10336150E+004  0.10197140E+004  0.10119280E+004  0.10082820E+004  0.10068330E+004  0.10059490E+004  0.10055990E+004  0.10054710E+004  0.10045550E+004  0.10046970E+004  0.10088700E+004  0.10172240E+004  0.10277510E+004  0.10378250E+004  0.10457700E+004  0.10511890E+004  0.10539611E+004  0.10557889E+004  0.10567560E+004  0.10531110E+004  0.10436689E+004  0.10305200E+004  0.10175890E+004  0.10102400E+004  0.10101210E+004
0.10206590E+004  0.10186360E+004  0.10166300E+004  0.10160980E+004  0.10178320E+004  0.10195910E+004  0.10200430E+004  0.10196480E+004  0.10154060E+004  0.10101900E+004  0.10105920E+004  0.10155830E+004  0.10192400E+004  0.10250730E+004  0.10320240E+004  0.10401730E+004  0.10456240E+004  0.10478120E+004  0.10490770E+004  0.10498280E+004  0.10514340E+004  0.10547920E+004  0.10582010E+004  0.10606600E+004  0.10626360E+004  0.10665330E+004  0.10732380E+004  0.10796730E+004  0.10837290E+004  0.10860560E+004  0.10852760E+004  0.10818550E+004  0.10777321E+004  0.10739590E+004  0.10701541E+004  0.10676390E+004  0.10666970E+004  0.10642111E+004  0.10555260E+004  0.10405389E+004  0.10262720E+004  0.10168580E+004  0.10112360E+004  0.10077450E+004  0.10063030E+004  0.10061060E+004  0.10061100E+004  0.10049090E+004  0.10033840E+004  0.10031610E+004  0.10056000E+004  0.10119250E+004  0.10207020E+004  0.10297870E+004  0.10368900E+004  0.10408640E+004  0.10444360E+004  0.10478070E+004  0.10450270E+004  0.10357260E+004  0.10244110E+004  0.10150790E+004  0.10102120E+004  0.10108630E+004
0.10209000E+004  0.10186300E+004  0.10163440E+004  0.10162740E+004  0.10184550E+004  0.10208860E+004  0.10217780E+004  0.10221880E+004  0.10201660E+004  0.10158770E+004  0.10154130E+004  0.10190760E+004  0.10236840E+004  0.10295610E+004  0.10354950E+004  0.10420000E+004  0.10462700E+004  0.10475160E+004  0.10477030E+004  0.10476021E+004  0.10484790E+004  0.10508260E+004  0.10538950E+004  0.10571040E+004  0.10606200E+004  0.10666410E+004  0.10749370E+004  0.10824440E+004  0.10872159E+004  0.10897260E+004  0.10902300E+004  0.10871479E+004  0.10821420E+004  0.10774800E+004  0.10734100E+004  0.10697650E+004  0.10679100E+004  0.10663870E+004  0.10605439E+004  0.10482679E+004  0.10345660E+004  0.10236400E+004  0.10152260E+004  0.10088720E+004  0.10055090E+004  0.10054130E+004  0.10057690E+004  0.10050600E+004  0.10032910E+004  0.10007580E+004  0.99977899E+003  0.10020660E+004  0.10077560E+004  0.10154620E+004  0.10228950E+004  0.10284709E+004  0.10333700E+004  0.10369790E+004  0.10347600E+004  0.10270760E+004  0.10188460E+004  0.10131090E+004  0.10106880E+004  0.10123100E+004
0.10208340E+004  0.10181920E+004  0.10159170E+004  0.10162060E+004  0.10194250E+004  0.10230770E+004  0.10262870E+004  0.10276910E+004  0.10246230E+004  0.10198010E+004  0.10181340E+004  0.10212800E+004  0.10269990E+004  0.10321420E+004  0.10371190E+004  0.10421910E+004  0.10449670E+004  0.10456541E+004  0.10451250E+004  0.10442560E+004  0.10447469E+004  0.10468180E+004  0.10500780E+004  0.10537090E+004  0.10586281E+004  0.10663060E+004  0.10755570E+004  0.10837920E+004  0.10894041E+004  0.10921520E+004  0.10930760E+004  0.10908149E+004  0.10858580E+004  0.10808820E+004  0.10767230E+004  0.10726200E+004  0.10689590E+004  0.10667970E+004  0.10630740E+004  0.10546949E+004  0.10425370E+004  0.10303000E+004  0.10193400E+004  0.10095750E+004  0.10039010E+004  0.10033570E+004  0.10040430E+004  0.10037090E+004  0.10025030E+004  0.99989502E+003  0.99715002E+003  0.99670203E+003  0.99931799E+003  0.10047160E+004  0.10115830E+004  0.10186510E+004  0.10248610E+004  0.10285811E+004  0.10272410E+004  0.10223880E+004  0.10174490E+004  0.10136690E+004  0.10122290E+004  0.10146130E+004
0.10204730E+004  0.10171990E+004  0.10148250E+004  0.10159530E+004  0.10199880E+004  0.10239560E+004  0.10302140E+004  0.10318960E+004  0.10292720E+004  0.10251370E+004  0.10230180E+004  0.10253060E+004  0.10295110E+004  0.10334260E+004  0.10373490E+004  0.10406021E+004  0.10422810E+004  0.10424290E+004  0.10415880E+004  0.10400439E+004  0.10398290E+004  0.10424301E+004  0.10463979E+004  0.10505670E+004  0.10560000E+004  0.10640170E+004  0.10732740E+004  0.10817570E+004  0.10889110E+004  0.10929041E+004  0.10934080E+004  0.10919620E+004  0.10879740E+004  0.10831960E+004  0.10789210E+004  0.10742780E+004  0.10693320E+004  0.10656801E+004  0.10631650E+004  0.10581920E+004  0.10480900E+004  0.10352220E+004  0.10223370E+004  0.10101600E+004  0.10021210E+004  0.10008540E+004  0.10015880E+004  0.10011940E+004  0.10000150E+004  0.99775299E+003  0.99496399E+003  0.99316498E+003  0.99394897E+003  0.99783301E+003  0.10043860E+004  0.10122180E+004  0.10196370E+004  0.10240811E+004  0.10249070E+004  0.10230640E+004  0.10199780E+004  0.10166310E+004  0.10152240E+004  0.10174080E+004
0.10197520E+004  0.10160800E+004  0.10136540E+004  0.10153810E+004  0.10190730E+004  0.10238800E+004  0.10309010E+004  0.10330850E+004  0.10314680E+004  0.10285980E+004  0.10272061E+004  0.10290160E+004  0.10321830E+004  0.10342030E+004  0.10360170E+004  0.10376949E+004  0.10386420E+004  0.10385580E+004  0.10370830E+004  0.10348850E+004  0.10342850E+004  0.10374000E+004  0.10420551E+004  0.10471130E+004  0.10525950E+004  0.10599810E+004  0.10683650E+004  0.10767660E+004  0.10852570E+004  0.10905980E+004  0.10919091E+004  0.10913230E+004  0.10883770E+004  0.10840060E+004  0.10795790E+004  0.10745450E+004  0.10693010E+004  0.10650710E+004  0.10624670E+004  0.10586600E+004  0.10502960E+004  0.10384070E+004  0.10251830E+004  0.10117250E+004  0.10017170E+004  0.99891199E+003  0.99890503E+003  0.99790900E+003  0.99635199E+003  0.99445203E+003  0.99209100E+003  0.99057300E+003  0.99125800E+003  0.99461603E+003  0.10008310E+004  0.10095560E+004  0.10174470E+004  0.10232150E+004  0.10259310E+004  0.10256550E+004  0.10234380E+004  0.10206240E+004  0.10188880E+004  0.10199480E+004
0.10225810E+004  0.10170770E+004  0.10150690E+004  0.10159470E+004  0.10173300E+004  0.10216900E+004  0.10284250E+004  0.10317130E+004  0.10320280E+004  0.10315179E+004  0.10312710E+004  0.10328820E+004  0.10343781E+004  0.10342450E+004  0.10335420E+004  0.10338900E+004  0.10344290E+004  0.10340460E+004  0.10325800E+004  0.10300490E+004  0.10293311E+004  0.10320520E+004  0.10373680E+004  0.10431420E+004  0.10489680E+004  0.10553590E+004  0.10626560E+004  0.10703240E+004  0.10789260E+004  0.10855970E+004  0.10886860E+004  0.10895470E+004  0.10875120E+004  0.10835750E+004  0.10793540E+004  0.10749360E+004  0.10705840E+004  0.10660190E+004  0.10618199E+004  0.10578290E+004  0.10510190E+004  0.10413040E+004  0.10294460E+004  0.10157160E+004  0.10038840E+004  0.99767902E+003  0.99605798E+003  0.99426398E+003  0.99314801E+003  0.99165997E+003  0.98984003E+003  0.98911298E+003  0.99030402E+003  0.99366101E+003  0.99999402E+003  0.10084910E+004  0.10170020E+004  0.10235590E+004  0.10272870E+004  0.10277710E+004  0.10262209E+004  0.10241851E+004  0.10220230E+004  0.10216880E+004
0.10307629E+004  0.10248870E+004  0.10216270E+004  0.10214240E+004  0.10199640E+004  0.10211070E+004  0.10260291E+004  0.10305450E+004  0.10330260E+004  0.10346810E+004  0.10356420E+004  0.10362780E+004  0.10358610E+004  0.10334200E+004  0.10306830E+004  0.10296350E+004  0.10298719E+004  0.10297290E+004  0.10285291E+004  0.10264510E+004  0.10254969E+004  0.10279500E+004  0.10333361E+004  0.10399771E+004  0.10457340E+004  0.10514449E+004  0.10578920E+004  0.10646639E+004  0.10721700E+004  0.10792679E+004  0.10841230E+004  0.10867850E+004  0.10859730E+004  0.10827550E+004  0.10789210E+004  0.10760610E+004  0.10733621E+004  0.10679790E+004  0.10618280E+004  0.10574420E+004  0.10527190E+004  0.10457340E+004  0.10357830E+004  0.10220640E+004  0.10079690E+004  0.99831500E+003  0.99397900E+003  0.99245398E+003  0.99170502E+003  0.99081799E+003  0.98940698E+003  0.98979700E+003  0.99131799E+003  0.99445599E+003  0.10004620E+004  0.10086380E+004  0.10167830E+004  0.10229210E+004  0.10268440E+004  0.10285510E+004  0.10288320E+004  0.10274640E+004  0.10244550E+004  0.10233020E+004
0.10417720E+004  0.10387070E+004  0.10372900E+004  0.10356750E+004  0.10297750E+004  0.10256030E+004  0.10276050E+004  0.10322920E+004  0.10358440E+004  0.10386000E+004  0.10400350E+004  0.10393521E+004  0.10369520E+004  0.10327780E+004  0.10281260E+004  0.10255190E+004  0.10252690E+004  0.10259919E+004  0.10255129E+004  0.10244139E+004  0.10239320E+004  0.10254821E+004  0.10304490E+004  0.10370129E+004  0.10432581E+004  0.10490811E+004  0.10550480E+004  0.10611580E+004  0.10674620E+004  0.10741230E+004  0.10806510E+004  0.10844600E+004  0.10847380E+004  0.10822590E+004  0.10794080E+004  0.10778290E+004  0.10761930E+004  0.10708950E+004  0.10636870E+004  0.10588990E+004  0.10553390E+004  0.10506740E+004  0.10431541E+004  0.10303669E+004  0.10145430E+004  0.10019740E+004  0.99614502E+003  0.99432501E+003  0.99319501E+003  0.99190100E+003  0.99147900E+003  0.99272998E+003  0.99489899E+003  0.99766699E+003  0.10027390E+004  0.10100530E+004  0.10168230E+004  0.10214670E+004  0.10244630E+004  0.10280260E+004  0.10322271E+004  0.10330950E+004  0.10297190E+004  0.10275811E+004
0.10528920E+004  0.10533950E+004  0.10541700E+004  0.10523160E+004  0.10441350E+004  0.10361219E+004  0.10352050E+004  0.10382791E+004  0.10411320E+004  0.10432230E+004  0.10441071E+004  0.10420341E+004  0.10381410E+004  0.10324020E+004  0.10261610E+004  0.10224390E+004  0.10221900E+004  0.10234690E+004  0.10242371E+004  0.10242700E+004  0.10242770E+004  0.10251899E+004  0.10286169E+004  0.10344301E+004  0.10412920E+004  0.10479320E+004  0.10541410E+004  0.10599139E+004  0.10653070E+004  0.10719780E+004  0.10793600E+004  0.10842670E+004  0.10844940E+004  0.10827560E+004  0.10810360E+004  0.10804189E+004  0.10797679E+004  0.10753160E+004  0.10689000E+004  0.10631530E+004  0.10576040E+004  0.10534270E+004  0.10491970E+004  0.10393860E+004  0.10235670E+004  0.10093840E+004  0.10025430E+004  0.99984198E+003  0.99738501E+003  0.99573297E+003  0.99607001E+003  0.99795001E+003  0.10003010E+004  0.10031550E+004  0.10078580E+004  0.10134490E+004  0.10178450E+004  0.10196170E+004  0.10211760E+004  0.10273320E+004  0.10374270E+004  0.10419550E+004  0.10390940E+004  0.10353719E+004
0.10617321E+004  0.10643370E+004  0.10668820E+004  0.10658700E+004  0.10590270E+004  0.10511370E+004  0.10483030E+004  0.10486060E+004  0.10486450E+004  0.10488409E+004  0.10480649E+004  0.10444480E+004  0.10389160E+004  0.10322400E+004  0.10252841E+004  0.10214510E+004  0.10211600E+004  0.10226690E+004  0.10242960E+004  0.10249940E+004  0.10252970E+004  0.10262271E+004  0.10285680E+004  0.10333810E+004  0.10398960E+004  0.10469351E+004  0.10540730E+004  0.10599410E+004  0.10649860E+004  0.10718680E+004  0.10802209E+004  0.10845710E+004  0.10846270E+004  0.10833590E+004  0.10825980E+004  0.10828940E+004  0.10827111E+004  0.10802070E+004  0.10758300E+004  0.10693710E+004  0.10605270E+004  0.10547970E+004  0.10522480E+004  0.10454460E+004  0.10315410E+004  0.10177800E+004  0.10109730E+004  0.10077810E+004  0.10040760E+004  0.10024370E+004  0.10032980E+004  0.10054640E+004  0.10079010E+004  0.10113000E+004  0.10156360E+004  0.10196230E+004  0.10210800E+004  0.10196890E+004  0.10190520E+004  0.10273020E+004  0.10425690E+004  0.10504380E+004  0.10482380E+004  0.10435081E+004
0.10664510E+004  0.10695570E+004  0.10728910E+004  0.10738950E+004  0.10711530E+004  0.10667450E+004  0.10641490E+004  0.10615920E+004  0.10586810E+004  0.10562970E+004  0.10529570E+004  0.10470750E+004  0.10397190E+004  0.10322050E+004  0.10259260E+004  0.10225340E+004  0.10212900E+004  0.10224070E+004  0.10243230E+004  0.10254130E+004  0.10262200E+004  0.10277000E+004  0.10300000E+004  0.10334060E+004  0.10384520E+004  0.10454871E+004  0.10534880E+004  0.10596121E+004  0.10643180E+004  0.10723840E+004  0.10810460E+004  0.10847280E+004  0.10841840E+004  0.10831660E+004  0.10827000E+004  0.10830000E+004  0.10830649E+004  0.10821770E+004  0.10804611E+004  0.10750950E+004  0.10648320E+004  0.10567581E+004  0.10532090E+004  0.10470200E+004  0.10356680E+004  0.10247870E+004  0.10193220E+004  0.10161740E+004  0.10124290E+004  0.10106500E+004  0.10122250E+004  0.10145920E+004  0.10175430E+004  0.10217130E+004  0.10257950E+004  0.10285660E+004  0.10284760E+004  0.10246899E+004  0.10212490E+004  0.10286560E+004  0.10453330E+004  0.10551210E+004  0.10538350E+004  0.10488820E+004
0.10675800E+004  0.10710120E+004  0.10752300E+004  0.10788380E+004  0.10801270E+004  0.10793390E+004  0.10782061E+004  0.10754360E+004  0.10712679E+004  0.10658190E+004  0.10586639E+004  0.10498080E+004  0.10405670E+004  0.10324709E+004  0.10270350E+004  0.10233880E+004  0.10213870E+004  0.10214350E+004  0.10230700E+004  0.10246639E+004  0.10265200E+004  0.10287271E+004  0.10310179E+004  0.10329139E+004  0.10363400E+004  0.10433260E+004  0.10517540E+004  0.10577810E+004  0.10630460E+004  0.10717889E+004  0.10810300E+004  0.10845270E+004  0.10832540E+004  0.10818020E+004  0.10814360E+004  0.10813650E+004  0.10811930E+004  0.10812830E+004  0.10815610E+004  0.10782810E+004  0.10694550E+004  0.10604530E+004  0.10547040E+004  0.10481030E+004  0.10387209E+004  0.10304110E+004  0.10262679E+004  0.10233710E+004  0.10197510E+004  0.10188010E+004  0.10210330E+004  0.10242469E+004  0.10283311E+004  0.10332419E+004  0.10374449E+004  0.10402780E+004  0.10401580E+004  0.10351450E+004  0.10290710E+004  0.10323660E+004  0.10465520E+004  0.10567000E+004  0.10565320E+004  0.10522280E+004
0.10679930E+004  0.10718990E+004  0.10779041E+004  0.10830210E+004  0.10857460E+004  0.10867371E+004  0.10873260E+004  0.10866670E+004  0.10829370E+004  0.10757469E+004  0.10654510E+004  0.10534840E+004  0.10422300E+004  0.10331310E+004  0.10267920E+004  0.10231610E+004  0.10202800E+004  0.10193190E+004  0.10205830E+004  0.10226480E+004  0.10250780E+004  0.10280240E+004  0.10304550E+004  0.10317690E+004  0.10343831E+004  0.10409210E+004  0.10496510E+004  0.10561730E+004  0.10617910E+004  0.10713740E+004  0.10807080E+004  0.10835840E+004  0.10817870E+004  0.10796219E+004  0.10790360E+004  0.10790170E+004  0.10792729E+004  0.10802090E+004  0.10811440E+004  0.10794980E+004  0.10735480E+004  0.10654200E+004  0.10586650E+004  0.10519470E+004  0.10434900E+004  0.10362710E+004  0.10322050E+004  0.10287159E+004  0.10257660E+004  0.10262570E+004  0.10299120E+004  0.10340341E+004  0.10397900E+004  0.10458700E+004  0.10506760E+004  0.10539561E+004  0.10544120E+004  0.10496720E+004  0.10410129E+004  0.10397260E+004  0.10494530E+004  0.10578220E+004  0.10582970E+004  0.10550930E+004
0.10696040E+004  0.10738130E+004  0.10808770E+004  0.10864200E+004  0.10883459E+004  0.10891270E+004  0.10907209E+004  0.10918361E+004  0.10895840E+004  0.10830320E+004  0.10727209E+004  0.10600120E+004  0.10463920E+004  0.10345380E+004  0.10265120E+004  0.10218700E+004  0.10185330E+004  0.10169800E+004  0.10180140E+004  0.10199170E+004  0.10223510E+004  0.10255690E+004  0.10285820E+004  0.10308710E+004  0.10337260E+004  0.10399730E+004  0.10491670E+004  0.10565610E+004  0.10628450E+004  0.10722990E+004  0.10805060E+004  0.10822220E+004  0.10795190E+004  0.10767531E+004  0.10760070E+004  0.10769690E+004  0.10782140E+004  0.10794530E+004  0.10804220E+004  0.10797710E+004  0.10764950E+004  0.10702600E+004  0.10631270E+004  0.10568480E+004  0.10500540E+004  0.10432620E+004  0.10383060E+004  0.10348390E+004  0.10330680E+004  0.10350510E+004  0.10394950E+004  0.10447170E+004  0.10514880E+004  0.10594570E+004  0.10650570E+004  0.10680140E+004  0.10688320E+004  0.10643390E+004  0.10551960E+004  0.10508610E+004  0.10560240E+004  0.10613690E+004  0.10610220E+004  0.10582670E+004
0.10718051E+004  0.10764110E+004  0.10831970E+004  0.10881790E+004  0.10891820E+004  0.10889390E+004  0.10900470E+004  0.10915630E+004  0.10907690E+004  0.10862889E+004  0.10788250E+004  0.10678590E+004  0.10532140E+004  0.10380220E+004  0.10271820E+004  0.10208740E+004  0.10172400E+004  0.10158760E+004  0.10165760E+004  0.10178990E+004  0.10198370E+004  0.10230080E+004  0.10267830E+004  0.10305260E+004  0.10344540E+004  0.10408340E+004  0.10509720E+004  0.10599010E+004  0.10668640E+004  0.10747209E+004  0.10807740E+004  0.10809520E+004  0.10770950E+004  0.10737740E+004  0.10737419E+004  0.10761140E+004  0.10783530E+004  0.10792490E+004  0.10797410E+004  0.10800780E+004  0.10786390E+004  0.10738010E+004  0.10666400E+004  0.10617300E+004  0.10576801E+004  0.10520250E+004  0.10464330E+004  0.10429650E+004  0.10425811E+004  0.10454189E+004  0.10501270E+004  0.10554449E+004  0.10628650E+004  0.10715291E+004  0.10773929E+004  0.10799709E+004  0.10800909E+004  0.10760660E+004  0.10679220E+004  0.10628630E+004  0.10641180E+004  0.10659180E+004  0.10644410E+004  0.10613420E+004
0.10738480E+004  0.10776830E+004  0.10841310E+004  0.10880580E+004  0.10887250E+004  0.10873140E+004  0.10871840E+004  0.10885439E+004  0.10881930E+004  0.10860920E+004  0.10818990E+004  0.10742020E+004  0.10600280E+004  0.10428490E+004  0.10292340E+004  0.10210600E+004  0.10169170E+004  0.10158180E+004  0.10164670E+004  0.10173220E+004  0.10190410E+004  0.10224880E+004  0.10266190E+004  0.10308920E+004  0.10354420E+004  0.10425500E+004  0.10540959E+004  0.10649740E+004  0.10720200E+004  0.10779280E+004  0.10816479E+004  0.10807280E+004  0.10761110E+004  0.10723600E+004  0.10726570E+004  0.10759900E+004  0.10790070E+004  0.10800720E+004  0.10803590E+004  0.10812820E+004  0.10808540E+004  0.10769930E+004  0.10706560E+004  0.10669570E+004  0.10653000E+004  0.10612760E+004  0.10561420E+004  0.10527000E+004  0.10525350E+004  0.10550389E+004  0.10594410E+004  0.10650090E+004  0.10717910E+004  0.10792780E+004  0.10845270E+004  0.10866770E+004  0.10861930E+004  0.10823340E+004  0.10759310E+004  0.10708879E+004  0.10693540E+004  0.10681880E+004  0.10655060E+004  0.10623010E+004
0.10745950E+004  0.10777050E+004  0.10826660E+004  0.10862159E+004  0.10862000E+004  0.10845370E+004  0.10837939E+004  0.10839940E+004  0.10836260E+004  0.10825360E+004  0.10815430E+004  0.10766150E+004  0.10647770E+004  0.10480160E+004  0.10328730E+004  0.10224180E+004  0.10176340E+004  0.10164810E+004  0.10166860E+004  0.10182170E+004  0.10208810E+004  0.10247170E+004  0.10290590E+004  0.10329460E+004  0.10364611E+004  0.10440220E+004  0.10572220E+004  0.10692600E+004  0.10759470E+004  0.10802271E+004  0.10831071E+004  0.10820760E+004  0.10774760E+004  0.10732791E+004  0.10725170E+004  0.10753020E+004  0.10792440E+004  0.10815610E+004  0.10826740E+004  0.10833110E+004  0.10836160E+004  0.10810790E+004  0.10759460E+004  0.10729000E+004  0.10724240E+004  0.10701030E+004  0.10661200E+004  0.10631030E+004  0.10621670E+004  0.10634910E+004  0.10671630E+004  0.10721010E+004  0.10772560E+004  0.10823550E+004  0.10863960E+004  0.10880990E+004  0.10871880E+004  0.10837061E+004  0.10785129E+004  0.10736541E+004  0.10702889E+004  0.10673550E+004  0.10638979E+004  0.10607220E+004
0.10742280E+004  0.10762889E+004  0.10800360E+004  0.10827190E+004  0.10825790E+004  0.10810870E+004  0.10798440E+004  0.10788361E+004  0.10776550E+004  0.10773540E+004  0.10774320E+004  0.10754550E+004  0.10668800E+004  0.10527390E+004  0.10372950E+004  0.10253250E+004  0.10193720E+004  0.10176520E+004  0.10182500E+004  0.10208330E+004  0.10246250E+004  0.10288160E+004  0.10332990E+004  0.10362180E+004  0.10383350E+004  0.10450010E+004  0.10583140E+004  0.10712850E+004  0.10776090E+004  0.10806610E+004  0.10831840E+004  0.10828810E+004  0.10793950E+004  0.10749930E+004  0.10729570E+004  0.10748380E+004  0.10790640E+004  0.10828990E+004  0.10849780E+004  0.10855800E+004  0.10852340E+004  0.10838831E+004  0.10806660E+004  0.10787100E+004  0.10791570E+004  0.10783521E+004  0.10752590E+004  0.10724620E+004  0.10708790E+004  0.10714330E+004  0.10740270E+004  0.10772610E+004  0.10804210E+004  0.10832770E+004  0.10853820E+004  0.10862400E+004  0.10854550E+004  0.10827540E+004  0.10782070E+004  0.10735520E+004  0.10690890E+004  0.10647400E+004  0.10610229E+004  0.10583790E+004
0.10734280E+004  0.10745110E+004  0.10768120E+004  0.10785500E+004  0.10783290E+004  0.10768240E+004  0.10756660E+004  0.10738260E+004  0.10721830E+004  0.10716100E+004  0.10718831E+004  0.10709189E+004  0.10655699E+004  0.10550129E+004  0.10419900E+004  0.10298400E+004  0.10222550E+004  0.10199060E+004  0.10208740E+004  0.10241720E+004  0.10281910E+004  0.10321550E+004  0.10365730E+004  0.10391560E+004  0.10403060E+004  0.10456680E+004  0.10577889E+004  0.10707889E+004  0.10773290E+004  0.10794430E+004  0.10812610E+004  0.10813850E+004  0.10791890E+004  0.10759800E+004  0.10740060E+004  0.10754771E+004  0.10792250E+004  0.10828940E+004  0.10853440E+004  0.10855370E+004  0.10844030E+004  0.10834500E+004  0.10824250E+004  0.10821429E+004  0.10835110E+004  0.10839750E+004  0.10818521E+004  0.10791090E+004  0.10776200E+004  0.10778660E+004  0.10795730E+004  0.10814800E+004  0.10824189E+004  0.10827350E+004  0.10829520E+004  0.10827650E+004  0.10827170E+004  0.10813370E+004  0.10773070E+004  0.10727480E+004  0.10677371E+004  0.10623870E+004  0.10586219E+004  0.10569430E+004
0.10722960E+004  0.10728490E+004  0.10740420E+004  0.10748270E+004  0.10740060E+004  0.10729240E+004  0.10719340E+004  0.10704020E+004  0.10679730E+004  0.10664150E+004  0.10656340E+004  0.10645940E+004  0.10614250E+004  0.10548149E+004  0.10456541E+004  0.10355410E+004  0.10274730E+004  0.10235290E+004  0.10238110E+004  0.10273290E+004  0.10309561E+004  0.10344030E+004  0.10384611E+004  0.10411500E+004  0.10423400E+004  0.10469520E+004  0.10576370E+004  0.10699850E+004  0.10762780E+004  0.10779180E+004  0.10787670E+004  0.10789900E+004  0.10783470E+004  0.10770780E+004  0.10764760E+004  0.10776340E+004  0.10798350E+004  0.10821810E+004  0.10834070E+004  0.10834650E+004  0.10823680E+004  0.10816281E+004  0.10814160E+004  0.10821660E+004  0.10841689E+004  0.10859139E+004  0.10852490E+004  0.10832590E+004  0.10820260E+004  0.10822100E+004  0.10836770E+004  0.10842170E+004  0.10832520E+004  0.10814700E+004  0.10796410E+004  0.10787410E+004  0.10789960E+004  0.10784919E+004  0.10758710E+004  0.10715081E+004  0.10663409E+004  0.10613260E+004  0.10582550E+004  0.10574120E+004
0.10709910E+004  0.10714449E+004  0.10724091E+004  0.10723440E+004  0.10714850E+004  0.10703149E+004  0.10696210E+004  0.10679120E+004  0.10648820E+004  0.10618270E+004  0.10594780E+004  0.10579189E+004  0.10562750E+004  0.10532560E+004  0.10482190E+004  0.10412350E+004  0.10340100E+004  0.10286060E+004  0.10279410E+004  0.10309470E+004  0.10336820E+004  0.10363790E+004  0.10401930E+004  0.10429280E+004  0.10446270E+004  0.10489230E+004  0.10588260E+004  0.10701600E+004  0.10758210E+004  0.10769100E+004  0.10776990E+004  0.10781910E+004  0.10784370E+004  0.10791780E+004  0.10800980E+004  0.10811520E+004  0.10815850E+004  0.10816429E+004  0.10818850E+004  0.10814690E+004  0.10807880E+004  0.10803459E+004  0.10804351E+004  0.10811230E+004  0.10834760E+004  0.10857410E+004  0.10862480E+004  0.10851160E+004  0.10842090E+004  0.10845490E+004  0.10854390E+004  0.10852440E+004  0.10835200E+004  0.10802700E+004  0.10761980E+004  0.10742520E+004  0.10741340E+004  0.10739860E+004  0.10725300E+004  0.10692280E+004  0.10646190E+004  0.10606740E+004  0.10592360E+004  0.10592400E+004
0.10705510E+004  0.10708350E+004  0.10713459E+004  0.10713590E+004  0.10704440E+004  0.10690420E+004  0.10677910E+004  0.10655300E+004  0.10618010E+004  0.10575110E+004  0.10541080E+004  0.10518590E+004  0.10510010E+004  0.10506760E+004  0.10487970E+004  0.10448390E+004  0.10392600E+004  0.10340510E+004  0.10327531E+004  0.10347469E+004  0.10363979E+004  0.10377610E+004  0.10406370E+004  0.10436140E+004  0.10457330E+004  0.10501610E+004  0.10598300E+004  0.10709640E+004  0.10764919E+004  0.10774850E+004  0.10783640E+004  0.10792800E+004  0.10800740E+004  0.10816899E+004  0.10838440E+004  0.10849620E+004  0.10842570E+004  0.10824280E+004  0.10814310E+004  0.10807290E+004  0.10804730E+004  0.10802390E+004  0.10802900E+004  0.10812810E+004  0.10827870E+004  0.10844139E+004  0.10852750E+004  0.10850229E+004  0.10841730E+004  0.10839969E+004  0.10842939E+004  0.10841870E+004  0.10827430E+004  0.10784659E+004  0.10727209E+004  0.10696960E+004  0.10691940E+004  0.10690210E+004  0.10683510E+004  0.10663910E+004  0.10629180E+004  0.10601541E+004  0.10598860E+004  0.10602590E+004
0.10703440E+004  0.10705470E+004  0.10708290E+004  0.10707180E+004  0.10698580E+004  0.10681479E+004  0.10658400E+004  0.10627780E+004  0.10579580E+004  0.10532540E+004  0.10493810E+004  0.10468030E+004  0.10465160E+004  0.10469060E+004  0.10463770E+004  0.10447700E+004  0.10409670E+004  0.10370811E+004  0.10361970E+004  0.10376160E+004  0.10382560E+004  0.10381700E+004  0.10398440E+004  0.10424990E+004  0.10452550E+004  0.10500790E+004  0.10597900E+004  0.10715840E+004  0.10790360E+004  0.10804380E+004  0.10806801E+004  0.10819790E+004  0.10830500E+004  0.10849510E+004  0.10872230E+004  0.10880970E+004  0.10864351E+004  0.10836000E+004  0.10814480E+004  0.10807990E+004  0.10802780E+004  0.10799790E+004  0.10798459E+004  0.10804180E+004  0.10814310E+004  0.10823280E+004  0.10835160E+004  0.10834530E+004  0.10823530E+004  0.10818820E+004  0.10818361E+004  0.10819680E+004  0.10807570E+004  0.10758380E+004  0.10692800E+004  0.10661870E+004  0.10654740E+004  0.10653940E+004  0.10653879E+004  0.10641650E+004  0.10620210E+004  0.10600890E+004  0.10598680E+004  0.10602531E+004
0.10691169E+004  0.10696510E+004  0.10699110E+004  0.10696370E+004  0.10689620E+004  0.10672050E+004  0.10642140E+004  0.10598440E+004  0.10549020E+004  0.10502450E+004  0.10460790E+004  0.10433430E+004  0.10425699E+004  0.10423220E+004  0.10420250E+004  0.10411851E+004  0.10390291E+004  0.10365280E+004  0.10367469E+004  0.10386110E+004  0.10389091E+004  0.10380129E+004  0.10385880E+004  0.10407760E+004  0.10439620E+004  0.10494000E+004  0.10590980E+004  0.10721820E+004  0.10816820E+004  0.10845200E+004  0.10846560E+004  0.10856160E+004  0.10871410E+004  0.10886550E+004  0.10902581E+004  0.10899460E+004  0.10875031E+004  0.10846740E+004  0.10826980E+004  0.10814670E+004  0.10803640E+004  0.10790370E+004  0.10779120E+004  0.10780350E+004  0.10788340E+004  0.10802111E+004  0.10819760E+004  0.10822750E+004  0.10816230E+004  0.10815250E+004  0.10814420E+004  0.10814420E+004  0.10800260E+004  0.10738790E+004  0.10668700E+004  0.10638010E+004  0.10635630E+004  0.10637380E+004  0.10638879E+004  0.10636270E+004  0.10620389E+004  0.10602590E+004  0.10599600E+004  0.10599130E+004
0.10676820E+004  0.10679080E+004  0.10679530E+004  0.10679399E+004  0.10674760E+004  0.10661949E+004  0.10628230E+004  0.10576150E+004  0.10530680E+004  0.10492090E+004  0.10452910E+004  0.10421470E+004  0.10395990E+004  0.10381100E+004  0.10372590E+004  0.10367820E+004  0.10354940E+004  0.10345250E+004  0.10353820E+004  0.10378680E+004  0.10385410E+004  0.10372710E+004  0.10367390E+004  0.10387700E+004  0.10427729E+004  0.10489640E+004  0.10591851E+004  0.10725140E+004  0.10833820E+004  0.10878740E+004  0.10889540E+004  0.10896650E+004  0.10905439E+004  0.10915570E+004  0.10918040E+004  0.10905240E+004  0.10880820E+004  0.10860970E+004  0.10848060E+004  0.10835291E+004  0.10814800E+004  0.10787380E+004  0.10764010E+004  0.10757250E+004  0.10769730E+004  0.10791460E+004  0.10813040E+004  0.10823540E+004  0.10835730E+004  0.10852170E+004  0.10844960E+004  0.10838199E+004  0.10818149E+004  0.10739760E+004  0.10654250E+004  0.10618120E+004  0.10615830E+004  0.10624630E+004  0.10632690E+004  0.10640510E+004  0.10628030E+004  0.10609160E+004  0.10603660E+004  0.10595410E+004
0.10664000E+004  0.10655840E+004  0.10653970E+004  0.10656949E+004  0.10659091E+004  0.10652180E+004  0.10616830E+004  0.10560000E+004  0.10518590E+004  0.10492040E+004  0.10458420E+004  0.10419420E+004  0.10385640E+004  0.10355320E+004  0.10338320E+004  0.10328810E+004  0.10321331E+004  0.10317340E+004  0.10336790E+004  0.10365300E+004  0.10376240E+004  0.10363929E+004  0.10350010E+004  0.10367900E+004  0.10421390E+004  0.10498680E+004  0.10604720E+004  0.10729370E+004  0.10834320E+004  0.10891689E+004  0.10914709E+004  0.10923990E+004  0.10928810E+004  0.10927040E+004  0.10921340E+004  0.10906090E+004  0.10887570E+004  0.10871851E+004  0.10861110E+004  0.10846790E+004  0.10822209E+004  0.10789330E+004  0.10761610E+004  0.10749460E+004  0.10765320E+004  0.10794990E+004  0.10820341E+004  0.10836910E+004  0.10866780E+004  0.10900790E+004  0.10890670E+004  0.10861350E+004  0.10827419E+004  0.10736370E+004  0.10634640E+004  0.10588680E+004  0.10585940E+004  0.10598311E+004  0.10622650E+004  0.10641720E+004  0.10637700E+004  0.10616980E+004  0.10605060E+004  0.10594320E+004
0.10644990E+004  0.10635160E+004  0.10629020E+004  0.10630179E+004  0.10631490E+004  0.10631990E+004  0.10605380E+004  0.10548420E+004  0.10504370E+004  0.10486801E+004  0.10462540E+004  0.10423820E+004  0.10380229E+004  0.10341290E+004  0.10312870E+004  0.10296110E+004  0.10286270E+004  0.10288440E+004  0.10314750E+004  0.10352629E+004  0.10368790E+004  0.10358400E+004  0.10344810E+004  0.10356071E+004  0.10411420E+004  0.10499440E+004  0.10609600E+004  0.10727220E+004  0.10820160E+004  0.10875980E+004  0.10906200E+004  0.10923879E+004  0.10927640E+004  0.10924900E+004  0.10918350E+004  0.10911160E+004  0.10897889E+004  0.10880420E+004  0.10856770E+004  0.10831670E+004  0.10809380E+004  0.10783560E+004  0.10760990E+004  0.10753370E+004  0.10769730E+004  0.10805020E+004  0.10835570E+004  0.10855720E+004  0.10886520E+004  0.10922640E+004  0.10904000E+004  0.10842610E+004  0.10786429E+004  0.10696650E+004  0.10594430E+004  0.10551960E+004  0.10550081E+004  0.10570450E+004  0.10610150E+004  0.10643790E+004  0.10647000E+004  0.10620990E+004  0.10597850E+004  0.10587889E+004
0.10631740E+004  0.10624580E+004  0.10614070E+004  0.10603680E+004  0.10599220E+004  0.10594930E+004  0.10574620E+004  0.10522061E+004  0.10479100E+004  0.10465930E+004  0.10454659E+004  0.10424561E+004  0.10371650E+004  0.10321479E+004  0.10286340E+004  0.10264120E+004  0.10251180E+004  0.10257800E+004  0.10292350E+004  0.10336350E+004  0.10358060E+004  0.10352690E+004  0.10341290E+004  0.10347469E+004  0.10393810E+004  0.10482581E+004  0.10593370E+004  0.10702990E+004  0.10782670E+004  0.10834730E+004  0.10871281E+004  0.10894680E+004  0.10908030E+004  0.10907791E+004  0.10909620E+004  0.10910120E+004  0.10906820E+004  0.10886260E+004  0.10845140E+004  0.10807939E+004  0.10786510E+004  0.10771970E+004  0.10756940E+004  0.10756240E+004  0.10777889E+004  0.10813571E+004  0.10847750E+004  0.10866281E+004  0.10883390E+004  0.10906541E+004  0.10875811E+004  0.10787030E+004  0.10709969E+004  0.10634210E+004  0.10556250E+004  0.10523840E+004  0.10526639E+004  0.10554351E+004  0.10608840E+004  0.10651390E+004  0.10653480E+004  0.10621790E+004  0.10587800E+004  0.10576320E+004
0.10627870E+004  0.10627480E+004  0.10612870E+004  0.10587900E+004  0.10567280E+004  0.10553600E+004  0.10523030E+004  0.10476750E+004  0.10445710E+004  0.10440470E+004  0.10438910E+004  0.10413660E+004  0.10358430E+004  0.10298459E+004  0.10257170E+004  0.10231610E+004  0.10218950E+004  0.10226930E+004  0.10263140E+004  0.10306860E+004  0.10333070E+004  0.10334720E+004  0.10328621E+004  0.10331200E+004  0.10368010E+004  0.10448180E+004  0.10549070E+004  0.10643920E+004  0.10712550E+004  0.10762679E+004  0.10809969E+004  0.10847550E+004  0.10870540E+004  0.10879189E+004  0.10880740E+004  0.10892830E+004  0.10897360E+004  0.10877080E+004  0.10834440E+004  0.10794230E+004  0.10772950E+004  0.10761899E+004  0.10746030E+004  0.10746610E+004  0.10773910E+004  0.10810940E+004  0.10845920E+004  0.10861750E+004  0.10864260E+004  0.10868970E+004  0.10830020E+004  0.10729520E+004  0.10643470E+004  0.10587380E+004  0.10541250E+004  0.10521949E+004  0.10524940E+004  0.10553101E+004  0.10611140E+004  0.10650990E+004  0.10650400E+004  0.10613590E+004  0.10574790E+004  0.10565520E+004
0.10625970E+004  0.10628610E+004  0.10616180E+004  0.10583730E+004  0.10546630E+004  0.10514630E+004  0.10473190E+004  0.10432910E+004  0.10416370E+004  0.10420229E+004  0.10425070E+004  0.10401460E+004  0.10345320E+004  0.10281320E+004  0.10232130E+004  0.10201960E+004  0.10189040E+004  0.10193140E+004  0.10218090E+004  0.10259020E+004  0.10285490E+004  0.10295389E+004  0.10293910E+004  0.10295291E+004  0.10324520E+004  0.10384420E+004  0.10465210E+004  0.10542111E+004  0.10600010E+004  0.10651930E+004  0.10706400E+004  0.10756410E+004  0.10789460E+004  0.10807570E+004  0.10826270E+004  0.10849670E+004  0.10859260E+004  0.10844290E+004  0.10816890E+004  0.10789980E+004  0.10769290E+004  0.10751331E+004  0.10732581E+004  0.10728080E+004  0.10753650E+004  0.10790300E+004  0.10827180E+004  0.10841851E+004  0.10832720E+004  0.10820040E+004  0.10778740E+004  0.10688361E+004  0.10608140E+004  0.10570610E+004  0.10549821E+004  0.10538970E+004  0.10534310E+004  0.10559370E+004  0.10607620E+004  0.10639730E+004  0.10633700E+004  0.10594330E+004  0.10561160E+004  0.10557321E+004
0.10625240E+004  0.10625150E+004  0.10614370E+004  0.10583781E+004  0.10538260E+004  0.10487540E+004  0.10437260E+004  0.10405240E+004  0.10395590E+004  0.10399620E+004  0.10410110E+004  0.10389200E+004  0.10333840E+004  0.10267740E+004  0.10214310E+004  0.10180030E+004  0.10161650E+004  0.10154880E+004  0.10165640E+004  0.10193630E+004  0.10224100E+004  0.10237220E+004  0.10237310E+004  0.10239790E+004  0.10260060E+004  0.10298630E+004  0.10353110E+004  0.10407750E+004  0.10451890E+004  0.10499830E+004  0.10557030E+004  0.10612570E+004  0.10650811E+004  0.10689270E+004  0.10739580E+004  0.10779500E+004  0.10797760E+004  0.10790959E+004  0.10782290E+004  0.10774180E+004  0.10760790E+004  0.10737980E+004  0.10714290E+004  0.10708560E+004  0.10730410E+004  0.10765690E+004  0.10798330E+004  0.10805850E+004  0.10780680E+004  0.10753660E+004  0.10718621E+004  0.10657720E+004  0.10599440E+004  0.10576591E+004  0.10567970E+004  0.10552180E+004  0.10545050E+004  0.10561200E+004  0.10600740E+004  0.10624821E+004  0.10613101E+004  0.10579320E+004  0.10555070E+004  0.10557720E+004
0.10628130E+004  0.10621810E+004  0.10607010E+004  0.10578571E+004  0.10536620E+004  0.10476420E+004  0.10419270E+004  0.10391080E+004  0.10380959E+004  0.10381940E+004  0.10390990E+004  0.10378459E+004  0.10322500E+004  0.10253750E+004  0.10200030E+004  0.10165490E+004  0.10137840E+004  0.10116910E+004  0.10115020E+004  0.10129970E+004  0.10153210E+004  0.10173670E+004  0.10176510E+004  0.10179760E+004  0.10191560E+004  0.10213450E+004  0.10244390E+004  0.10275900E+004  0.10301940E+004  0.10336899E+004  0.10394490E+004  0.10451550E+004  0.10495300E+004  0.10557480E+004  0.10644910E+004  0.10705450E+004  0.10725220E+004  0.10731400E+004  0.10737360E+004  0.10744150E+004  0.10738750E+004  0.10718380E+004  0.10692371E+004  0.10688080E+004  0.10710291E+004  0.10742350E+004  0.10762520E+004  0.10752720E+004  0.10714290E+004  0.10674260E+004  0.10647430E+004  0.10618409E+004  0.10591890E+004  0.10581830E+004  0.10572880E+004  0.10553910E+004  0.10548060E+004  0.10567120E+004  0.10595820E+004  0.10612030E+004  0.10597679E+004  0.10573250E+004  0.10565490E+004  0.10572460E+004
0.10629611E+004  0.10615890E+004  0.10598160E+004  0.10574440E+004  0.10537970E+004  0.10476810E+004  0.10415660E+004  0.10385560E+004  0.10373390E+004  0.10367300E+004  0.10371780E+004  0.10359580E+004  0.10306750E+004  0.10237200E+004  0.10182110E+004  0.10144620E+004  0.10111180E+004  0.10081180E+004  0.10068740E+004  0.10073010E+004  0.10090380E+004  0.10112030E+004  0.10123420E+004  0.10126220E+004  0.10135930E+004  0.10147740E+004  0.10159880E+004  0.10171750E+004  0.10181820E+004  0.10207770E+004  0.10259580E+004  0.10310490E+004  0.10358781E+004  0.10448560E+004  0.10567960E+004  0.10636010E+004  0.10661210E+004  0.10682939E+004  0.10703130E+004  0.10717640E+004  0.10719270E+004  0.10700970E+004  0.10674990E+004  0.10667419E+004  0.10689290E+004  0.10716750E+004  0.10722900E+004  0.10699540E+004  0.10647780E+004  0.10597800E+004  0.10574440E+004  0.10569260E+004  0.10570840E+004  0.10575590E+004  0.10567800E+004  0.10554301E+004  0.10557620E+004  0.10581470E+004  0.10605420E+004  0.10608490E+004  0.10584440E+004  0.10569280E+004  0.10583101E+004  0.10593340E+004
0.10623979E+004  0.10611140E+004  0.10594730E+004  0.10576880E+004  0.10545270E+004  0.10489910E+004  0.10425110E+004  0.10384120E+004  0.10363430E+004  0.10352350E+004  0.10346160E+004  0.10325310E+004  0.10274060E+004  0.10212070E+004  0.10156990E+004  0.10114790E+004  0.10075680E+004  0.10044060E+004  0.10026550E+004  0.10027440E+004  0.10046050E+004  0.10067860E+004  0.10080920E+004  0.10088220E+004  0.10094290E+004  0.10099620E+004  0.10100630E+004  0.10098550E+004  0.10103850E+004  0.10123770E+004  0.10162620E+004  0.10204040E+004  0.10251010E+004  0.10357380E+004  0.10490861E+004  0.10568831E+004  0.10612020E+004  0.10655959E+004  0.10689810E+004  0.10708710E+004  0.10714250E+004  0.10700400E+004  0.10667140E+004  0.10650520E+004  0.10668459E+004  0.10692390E+004  0.10690670E+004  0.10658950E+004  0.10598190E+004  0.10541150E+004  0.10521910E+004  0.10535861E+004  0.10560820E+004  0.10577760E+004  0.10574890E+004  0.10569260E+004  0.10580150E+004  0.10611200E+004  0.10635770E+004  0.10624290E+004  0.10583160E+004  0.10567180E+004  0.10588510E+004  0.10598929E+004
0.10619969E+004  0.10609270E+004  0.10597770E+004  0.10583660E+004  0.10558890E+004  0.10509840E+004  0.10442841E+004  0.10387061E+004  0.10355959E+004  0.10334160E+004  0.10311340E+004  0.10279170E+004  0.10231250E+004  0.10175020E+004  0.10126520E+004  0.10080350E+004  0.10038930E+004  0.10008800E+004  0.99902698E+003  0.99940601E+003  0.10017880E+004  0.10041650E+004  0.10060030E+004  0.10069130E+004  0.10068530E+004  0.10065070E+004  0.10059130E+004  0.10055610E+004  0.10065750E+004  0.10085340E+004  0.10108580E+004  0.10134270E+004  0.10174380E+004  0.10268000E+004  0.10397950E+004  0.10495940E+004  0.10575229E+004  0.10649010E+004  0.10694659E+004  0.10716650E+004  0.10722321E+004  0.10704670E+004  0.10669561E+004  0.10648459E+004  0.10662510E+004  0.10682410E+004  0.10678110E+004  0.10642660E+004  0.10580310E+004  0.10523730E+004  0.10513810E+004  0.10541851E+004  0.10586021E+004  0.10608149E+004  0.10605500E+004  0.10600970E+004  0.10619170E+004  0.10657271E+004  0.10688030E+004  0.10661960E+004  0.10606281E+004  0.10575620E+004  0.10578600E+004  0.10586331E+004
0.10620360E+004  0.10611071E+004  0.10601490E+004  0.10589250E+004  0.10567870E+004  0.10522860E+004  0.10454810E+004  0.10392990E+004  0.10352570E+004  0.10319650E+004  0.10280020E+004  0.10239790E+004  0.10191820E+004  0.10140820E+004  0.10092610E+004  0.10046510E+004  0.10005040E+004  0.99785498E+003  0.99659998E+003  0.99726898E+003  0.99987701E+003  0.10032630E+004  0.10053810E+004  0.10063250E+004  0.10059520E+004  0.10047400E+004  0.10035390E+004  0.10039560E+004  0.10065430E+004  0.10096180E+004  0.10111510E+004  0.10118390E+004  0.10134420E+004  0.10190790E+004  0.10297600E+004  0.10423900E+004  0.10555820E+004  0.10650850E+004  0.10701410E+004  0.10724390E+004  0.10726290E+004  0.10708290E+004  0.10679070E+004  0.10665380E+004  0.10675179E+004  0.10689380E+004  0.10684620E+004  0.10655389E+004  0.10602100E+004  0.10558979E+004  0.10554290E+004  0.10589380E+004  0.10634840E+004  0.10656060E+004  0.10650820E+004  0.10651851E+004  0.10673370E+004  0.10716639E+004  0.10745740E+004  0.10717469E+004  0.10646281E+004  0.10593800E+004  0.10570840E+004  0.10568760E+004
0.10616210E+004  0.10611360E+004  0.10602889E+004  0.10590450E+004  0.10565870E+004  0.10520670E+004  0.10451710E+004  0.10389980E+004  0.10343149E+004  0.10299320E+004  0.10256250E+004  0.10210130E+004  0.10165890E+004  0.10113610E+004  0.10063560E+004  0.10018630E+004  0.99834998E+003  0.99599200E+003  0.99525403E+003  0.99610199E+003  0.99926599E+003  0.10029890E+004  0.10054860E+004  0.10062520E+004  0.10056260E+004  0.10039570E+004  0.10027280E+004  0.10044850E+004  0.10093410E+004  0.10141670E+004  0.10156800E+004  0.10147450E+004  0.10127570E+004  0.10139090E+004  0.10223920E+004  0.10386541E+004  0.10559060E+004  0.10660980E+004  0.10701830E+004  0.10722581E+004  0.10721880E+004  0.10708600E+004  0.10690450E+004  0.10684810E+004  0.10694010E+004  0.10698550E+004  0.10694060E+004  0.10681080E+004  0.10649980E+004  0.10622920E+004  0.10622700E+004  0.10652220E+004  0.10686460E+004  0.10695570E+004  0.10692690E+004  0.10699810E+004  0.10724510E+004  0.10762550E+004  0.10791090E+004  0.10765680E+004  0.10688390E+004  0.10612810E+004  0.10569821E+004  0.10559330E+004
0.10607740E+004  0.10606300E+004  0.10595170E+004  0.10577980E+004  0.10550389E+004  0.10502500E+004  0.10439390E+004  0.10379030E+004  0.10324871E+004  0.10273530E+004  0.10225960E+004  0.10182000E+004  0.10140430E+004  0.10094270E+004  0.10043700E+004  0.10002700E+004  0.99742401E+003  0.99565198E+003  0.99498102E+003  0.99606799E+003  0.99945203E+003  0.10032590E+004  0.10057890E+004  0.10068670E+004  0.10060300E+004  0.10036850E+004  0.10028580E+004  0.10061140E+004  0.10127350E+004  0.10186040E+004  0.10203500E+004  0.10181070E+004  0.10142170E+004  0.10131050E+004  0.10213580E+004  0.10403480E+004  0.10592190E+004  0.10679580E+004  0.10706801E+004  0.10720081E+004  0.10717610E+004  0.10703130E+004  0.10695940E+004  0.10700430E+004  0.10710330E+004  0.10710350E+004  0.10702990E+004  0.10693260E+004  0.10685310E+004  0.10676970E+004  0.10681750E+004  0.10701460E+004  0.10714910E+004  0.10715000E+004  0.10710410E+004  0.10721000E+004  0.10743690E+004  0.10773800E+004  0.10806790E+004  0.10794351E+004  0.10716200E+004  0.10626680E+004  0.10569020E+004  0.10548979E+004
0.10602280E+004  0.10595081E+004  0.10578110E+004  0.10552770E+004  0.10522100E+004  0.10476400E+004  0.10424900E+004  0.10372321E+004  0.10316180E+004  0.10257700E+004  0.10203590E+004  0.10154130E+004  0.10116900E+004  0.10077470E+004  0.10030410E+004  0.99920398E+003  0.99695203E+003  0.99607098E+003  0.99579498E+003  0.99700098E+003  0.10004600E+004  0.10043390E+004  0.10066970E+004  0.10080030E+004  0.10069290E+004  0.10043260E+004  0.10036230E+004  0.10074990E+004  0.10146650E+004  0.10204180E+004  0.10222800E+004  0.10204970E+004  0.10177570E+004  0.10186820E+004  0.10286790E+004  0.10480090E+004  0.10644301E+004  0.10704950E+004  0.10716750E+004  0.10725460E+004  0.10721899E+004  0.10708459E+004  0.10701121E+004  0.10707280E+004  0.10721670E+004  0.10725460E+004  0.10708190E+004  0.10691479E+004  0.10693940E+004  0.10702620E+004  0.10712640E+004  0.10720570E+004  0.10719730E+004  0.10711260E+004  0.10703820E+004  0.10709290E+004  0.10731570E+004  0.10758800E+004  0.10793521E+004  0.10796550E+004  0.10726970E+004  0.10630900E+004  0.10560590E+004  0.10531801E+004
0.10594240E+004  0.10580460E+004  0.10557040E+004  0.10525300E+004  0.10491071E+004  0.10454070E+004  0.10417570E+004  0.10376960E+004  0.10322780E+004  0.10262260E+004  0.10198040E+004  0.10144280E+004  0.10100480E+004  0.10061660E+004  0.10019860E+004  0.99840198E+003  0.99692798E+003  0.99670898E+003  0.99683197E+003  0.99841803E+003  0.10023700E+004  0.10063510E+004  0.10087700E+004  0.10093660E+004  0.10077030E+004  0.10051330E+004  0.10050060E+004  0.10087120E+004  0.10149940E+004  0.10200930E+004  0.10220470E+004  0.10222670E+004  0.10241490E+004  0.10306500E+004  0.10430680E+004  0.10589180E+004  0.10695360E+004  0.10724930E+004  0.10727490E+004  0.10733600E+004  0.10730250E+004  0.10719010E+004  0.10709250E+004  0.10712330E+004  0.10726660E+004  0.10731460E+004  0.10705400E+004  0.10681360E+004  0.10688210E+004  0.10707650E+004  0.10715341E+004  0.10712500E+004  0.10706790E+004  0.10697830E+004  0.10685389E+004  0.10687280E+004  0.10708831E+004  0.10734690E+004  0.10767500E+004  0.10775240E+004  0.10715790E+004  0.10620000E+004  0.10543560E+004  0.10507300E+004
0.10587710E+004  0.10565120E+004  0.10540780E+004  0.10505490E+004  0.10467889E+004  0.10436620E+004  0.10409351E+004  0.10378610E+004  0.10334180E+004  0.10272550E+004  0.10205670E+004  0.10144440E+004  0.10097520E+004  0.10056090E+004  0.10015440E+004  0.99863800E+003  0.99764301E+003  0.99772198E+003  0.99845203E+003  0.10007510E+004  0.10052180E+004  0.10094840E+004  0.10115940E+004  0.10115530E+004  0.10086320E+004  0.10059960E+004  0.10064060E+004  0.10101590E+004  0.10153220E+004  0.10193240E+004  0.10214290E+004  0.10249659E+004  0.10331140E+004  0.10452450E+004  0.10584220E+004  0.10677629E+004  0.10721490E+004  0.10732980E+004  0.10735610E+004  0.10734250E+004  0.10732939E+004  0.10721410E+004  0.10712280E+004  0.10714960E+004  0.10725190E+004  0.10723260E+004  0.10699940E+004  0.10674189E+004  0.10678630E+004  0.10694930E+004  0.10695291E+004  0.10686600E+004  0.10679720E+004  0.10672950E+004  0.10664810E+004  0.10667640E+004  0.10688990E+004  0.10714050E+004  0.10736960E+004  0.10737980E+004  0.10680200E+004  0.10593390E+004  0.10524230E+004  0.10488290E+004
0.10588760E+004  0.10563010E+004  0.10535660E+004  0.10503979E+004  0.10461639E+004  0.10424620E+004  0.10393350E+004  0.10367300E+004  0.10334110E+004  0.10281720E+004  0.10211930E+004  0.10150000E+004  0.10100310E+004  0.10059400E+004  0.10024140E+004  0.99984198E+003  0.99887000E+003  0.99942603E+003  0.10011510E+004  0.10041910E+004  0.10084890E+004  0.10125310E+004  0.10144850E+004  0.10139790E+004  0.10109410E+004  0.10078530E+004  0.10081980E+004  0.10120490E+004  0.10166850E+004  0.10196970E+004  0.10224320E+004  0.10293380E+004  0.10420990E+004  0.10569091E+004  0.10678950E+004  0.10721180E+004  0.10727600E+004  0.10735680E+004  0.10740690E+004  0.10740031E+004  0.10734070E+004  0.10721760E+004  0.10712880E+004  0.10716010E+004  0.10714540E+004  0.10706040E+004  0.10692889E+004  0.10672500E+004  0.10665291E+004  0.10671490E+004  0.10665850E+004  0.10650500E+004  0.10639600E+004  0.10634080E+004  0.10631670E+004  0.10645389E+004  0.10668960E+004  0.10695760E+004  0.10714170E+004  0.10695870E+004  0.10631331E+004  0.10558230E+004  0.10506620E+004  0.10477650E+004
0.10600590E+004  0.10576530E+004  0.10554760E+004  0.10526379E+004  0.10479730E+004  0.10425770E+004  0.10381260E+004  0.10352590E+004  0.10326639E+004  0.10281210E+004  0.10218710E+004  0.10154880E+004  0.10103520E+004  0.10067290E+004  0.10036780E+004  0.10010600E+004  0.10002770E+004  0.10016280E+004  0.10041110E+004  0.10072390E+004  0.10107530E+004  0.10144270E+004  0.10167180E+004  0.10162200E+004  0.10138830E+004  0.10108150E+004  0.10106190E+004  0.10144790E+004  0.10189110E+004  0.10215830E+004  0.10247531E+004  0.10341520E+004  0.10488260E+004  0.10624680E+004  0.10704980E+004  0.10725990E+004  0.10723230E+004  0.10736030E+004  0.10751860E+004  0.10751250E+004  0.10743560E+004  0.10730940E+004  0.10721420E+004  0.10716050E+004  0.10700480E+004  0.10681910E+004  0.10667469E+004  0.10653270E+004  0.10642350E+004  0.10641071E+004  0.10633210E+004  0.10614550E+004  0.10598450E+004  0.10584150E+004  0.10587030E+004  0.10610820E+004  0.10644189E+004  0.10675520E+004  0.10697240E+004  0.10666620E+004  0.10593199E+004  0.10527930E+004  0.10492040E+004  0.10471219E+004
0.10622570E+004  0.10608879E+004  0.10592960E+004  0.10567100E+004  0.10519760E+004  0.10450830E+004  0.10383500E+004  0.10339900E+004  0.10311260E+004  0.10274330E+004  0.10222450E+004  0.10161750E+004  0.10109130E+004  0.10076390E+004  0.10049550E+004  0.10026230E+004  0.10023360E+004  0.10041540E+004  0.10065600E+004  0.10088890E+004  0.10114340E+004  0.10149590E+004  0.10179200E+004  0.10181380E+004  0.10158640E+004  0.10129370E+004  0.10127440E+004  0.10166020E+004  0.10210530E+004  0.10233650E+004  0.10273600E+004  0.10380880E+004  0.10523640E+004  0.10632970E+004  0.10689670E+004  0.10702740E+004  0.10710880E+004  0.10734440E+004  0.10761080E+004  0.10768669E+004  0.10757770E+004  0.10741560E+004  0.10727190E+004  0.10708240E+004  0.10678270E+004  0.10643800E+004  0.10615750E+004  0.10600880E+004  0.10603180E+004  0.10612440E+004  0.10611560E+004  0.10594830E+004  0.10566000E+004  0.10536100E+004  0.10529950E+004  0.10564871E+004  0.10608160E+004  0.10646780E+004  0.10669561E+004  0.10642870E+004  0.10571300E+004  0.10512350E+004  0.10479010E+004  0.10463950E+004
0.10640850E+004  0.10635090E+004  0.10631200E+004  0.10613740E+004  0.10566210E+004  0.10488470E+004  0.10402640E+004  0.10336490E+004  0.10297700E+004  0.10270060E+004  0.10232710E+004  0.10179420E+004  0.10131480E+004  0.10095040E+004  0.10067730E+004  0.10050430E+004  0.10053410E+004  0.10068440E+004  0.10083910E+004  0.10097130E+004  0.10115260E+004  0.10144970E+004  0.10179460E+004  0.10190290E+004  0.10170000E+004  0.10140370E+004  0.10140000E+004  0.10177000E+004  0.10221050E+004  0.10246470E+004  0.10295750E+004  0.10411200E+004  0.10541460E+004  0.10623080E+004  0.10662070E+004  0.10677770E+004  0.10696790E+004  0.10736169E+004  0.10771429E+004  0.10776689E+004  0.10759220E+004  0.10731130E+004  0.10701620E+004  0.10671541E+004  0.10637310E+004  0.10595100E+004  0.10551050E+004  0.10533800E+004  0.10562371E+004  0.10608770E+004  0.10627070E+004  0.10606281E+004  0.10555430E+004  0.10497791E+004  0.10481200E+004  0.10519470E+004  0.10565200E+004  0.10605300E+004  0.10629550E+004  0.10612640E+004  0.10559520E+004  0.10504000E+004  0.10466620E+004  0.10447090E+004
0.10637460E+004  0.10642170E+004  0.10649430E+004  0.10639600E+004  0.10599390E+004  0.10526429E+004  0.10433140E+004  0.10350129E+004  0.10304800E+004  0.10280179E+004  0.10254220E+004  0.10213870E+004  0.10169830E+004  0.10132620E+004  0.10100400E+004  0.10084420E+004  0.10086390E+004  0.10096720E+004  0.10104710E+004  0.10110270E+004  0.10119030E+004  0.10142280E+004  0.10175470E+004  0.10191860E+004  0.10174930E+004  0.10146980E+004  0.10146580E+004  0.10181740E+004  0.10224280E+004  0.10256740E+004  0.10313719E+004  0.10430510E+004  0.10547500E+004  0.10615510E+004  0.10647700E+004  0.10666340E+004  0.10696071E+004  0.10741770E+004  0.10770200E+004  0.10764640E+004  0.10732620E+004  0.10688230E+004  0.10643210E+004  0.10607371E+004  0.10576240E+004  0.10537080E+004  0.10494150E+004  0.10481300E+004  0.10545551E+004  0.10643860E+004  0.10684580E+004  0.10655520E+004  0.10580380E+004  0.10495610E+004  0.10466290E+004  0.10496400E+004  0.10531460E+004  0.10562390E+004  0.10586541E+004  0.10585160E+004  0.10550950E+004  0.10501080E+004  0.10456700E+004  0.10432050E+004
0.10634000E+004  0.10636940E+004  0.10647889E+004  0.10647360E+004  0.10614780E+004  0.10554650E+004  0.10468770E+004  0.10385790E+004  0.10334120E+004  0.10303650E+004  0.10277990E+004  0.10249200E+004  0.10212390E+004  0.10177010E+004  0.10143240E+004  0.10123020E+004  0.10119940E+004  0.10122850E+004  0.10127010E+004  0.10127820E+004  0.10129630E+004  0.10142840E+004  0.10166940E+004  0.10185330E+004  0.10172830E+004  0.10142490E+004  0.10142250E+004  0.10181100E+004  0.10227970E+004  0.10260610E+004  0.10320930E+004  0.10433831E+004  0.10549240E+004  0.10614399E+004  0.10645830E+004  0.10670270E+004  0.10702960E+004  0.10743300E+004  0.10758979E+004  0.10734220E+004  0.10689700E+004  0.10641790E+004  0.10592380E+004  0.10556920E+004  0.10531910E+004  0.10498800E+004  0.10458750E+004  0.10456420E+004  0.10552469E+004  0.10688330E+004  0.10752140E+004  0.10725400E+004  0.10640010E+004  0.10548630E+004  0.10505800E+004  0.10505229E+004  0.10516810E+004  0.10531750E+004  0.10551130E+004  0.10561550E+004  0.10543730E+004  0.10499380E+004  0.10456440E+004  0.10436680E+004
0.10639490E+004  0.10637300E+004  0.10645270E+004  0.10647500E+004  0.10622419E+004  0.10569910E+004  0.10498361E+004  0.10426930E+004  0.10374670E+004  0.10336281E+004  0.10306040E+004  0.10279380E+004  0.10245880E+004  0.10213020E+004  0.10185830E+004  0.10160440E+004  0.10145070E+004  0.10141100E+004  0.10141690E+004  0.10140400E+004  0.10140390E+004  0.10144000E+004  0.10155670E+004  0.10170750E+004  0.10162290E+004  0.10136240E+004  0.10139920E+004  0.10180020E+004  0.10222340E+004  0.10256071E+004  0.10317810E+004  0.10437460E+004  0.10554320E+004  0.10619170E+004  0.10654390E+004  0.10681219E+004  0.10711021E+004  0.10742010E+004  0.10742531E+004  0.10705150E+004  0.10658220E+004  0.10617360E+004  0.10580291E+004  0.10552469E+004  0.10529100E+004  0.10497620E+004  0.10453510E+004  0.10459561E+004  0.10564330E+004  0.10708920E+004  0.10784340E+004  0.10768900E+004  0.10708040E+004  0.10644330E+004  0.10591610E+004  0.10545160E+004  0.10518130E+004  0.10519280E+004  0.10535240E+004  0.10546801E+004  0.10539470E+004  0.10507920E+004  0.10473330E+004  0.10455900E+004
0.10633250E+004  0.10638781E+004  0.10644919E+004  0.10644659E+004  0.10622590E+004  0.10576680E+004  0.10513680E+004  0.10455140E+004  0.10410780E+004  0.10373640E+004  0.10341071E+004  0.10308640E+004  0.10271820E+004  0.10244730E+004  0.10221960E+004  0.10194030E+004  0.10168810E+004  0.10157160E+004  0.10151720E+004  0.10146730E+004  0.10144550E+004  0.10142480E+004  0.10149450E+004  0.10161610E+004  0.10150620E+004  0.10135810E+004  0.10148950E+004  0.10183870E+004  0.10216400E+004  0.10245360E+004  0.10314460E+004  0.10444790E+004  0.10568800E+004  0.10636300E+004  0.10672190E+004  0.10699139E+004  0.10725150E+004  0.10742170E+004  0.10728010E+004  0.10689990E+004  0.10652240E+004  0.10624760E+004  0.10599620E+004  0.10574290E+004  0.10553700E+004  0.10515460E+004  0.10467870E+004  0.10470649E+004  0.10564080E+004  0.10691021E+004  0.10767350E+004  0.10770380E+004  0.10746689E+004  0.10720861E+004  0.10674240E+004  0.10598730E+004  0.10540980E+004  0.10526470E+004  0.10539330E+004  0.10552230E+004  0.10551050E+004  0.10531890E+004  0.10504700E+004  0.10485970E+004
0.10615229E+004  0.10630460E+004  0.10641570E+004  0.10641720E+004  0.10624301E+004  0.10577810E+004  0.10524520E+004  0.10475439E+004  0.10435160E+004  0.10403920E+004  0.10374790E+004  0.10338521E+004  0.10298060E+004  0.10269871E+004  0.10250420E+004  0.10223120E+004  0.10196340E+004  0.10177580E+004  0.10163400E+004  0.10155040E+004  0.10146390E+004  0.10139870E+004  0.10146960E+004  0.10150540E+004  0.10139520E+004  0.10134010E+004  0.10156750E+004  0.10193060E+004  0.10215430E+004  0.10236870E+004  0.10310909E+004  0.10454000E+004  0.10590580E+004  0.10664840E+004  0.10700699E+004  0.10721390E+004  0.10739900E+004  0.10743270E+004  0.10722600E+004  0.10694580E+004  0.10667120E+004  0.10645649E+004  0.10626021E+004  0.10601460E+004  0.10578030E+004  0.10541340E+004  0.10491760E+004  0.10484130E+004  0.10550350E+004  0.10647180E+004  0.10715790E+004  0.10735160E+004  0.10738480E+004  0.10739980E+004  0.10713030E+004  0.10642140E+004  0.10571130E+004  0.10549070E+004  0.10558440E+004  0.10572650E+004  0.10578051E+004  0.10566060E+004  0.10541689E+004  0.10525320E+004
0.10597850E+004  0.10612760E+004  0.10633220E+004  0.10639611E+004  0.10623240E+004  0.10581670E+004  0.10533979E+004  0.10493090E+004  0.10453500E+004  0.10425861E+004  0.10405420E+004  0.10371180E+004  0.10325210E+004  0.10291591E+004  0.10268521E+004  0.10247010E+004  0.10222910E+004  0.10197720E+004  0.10177200E+004  0.10162330E+004  0.10147560E+004  0.10136160E+004  0.10139830E+004  0.10141980E+004  0.10135390E+004  0.10137250E+004  0.10165840E+004  0.10201510E+004  0.10218800E+004  0.10235460E+004  0.10310240E+004  0.10462791E+004  0.10615010E+004  0.10700250E+004  0.10729480E+004  0.10742111E+004  0.10750310E+004  0.10744561E+004  0.10723340E+004  0.10696880E+004  0.10676390E+004  0.10656880E+004  0.10635920E+004  0.10614840E+004  0.10590520E+004  0.10564340E+004  0.10526140E+004  0.10508510E+004  0.10545150E+004  0.10609030E+004  0.10661300E+004  0.10686000E+004  0.10699890E+004  0.10716230E+004  0.10706560E+004  0.10653070E+004  0.10591980E+004  0.10571060E+004  0.10582850E+004  0.10601970E+004  0.10609860E+004  0.10600100E+004  0.10581580E+004  0.10567500E+004
0.10585990E+004  0.10590480E+004  0.10613080E+004  0.10625439E+004  0.10614030E+004  0.10581140E+004  0.10539750E+004  0.10507770E+004  0.10476130E+004  0.10454160E+004  0.10441990E+004  0.10412679E+004  0.10364000E+004  0.10318040E+004  0.10288590E+004  0.10268750E+004  0.10244709E+004  0.10217350E+004  0.10189800E+004  0.10169050E+004  0.10151260E+004  0.10138550E+004  0.10138930E+004  0.10146330E+004  0.10148270E+004  0.10156930E+004  0.10181140E+004  0.10211550E+004  0.10224660E+004  0.10240000E+004  0.10320620E+004  0.10481560E+004  0.10647170E+004  0.10738890E+004  0.10760260E+004  0.10758070E+004  0.10755909E+004  0.10744490E+004  0.10712390E+004  0.10678409E+004  0.10657800E+004  0.10643180E+004  0.10624420E+004  0.10603101E+004  0.10590040E+004  0.10581890E+004  0.10559760E+004  0.10540800E+004  0.10553890E+004  0.10590110E+004  0.10628149E+004  0.10648380E+004  0.10663420E+004  0.10675980E+004  0.10670870E+004  0.10635790E+004  0.10597889E+004  0.10585980E+004  0.10602271E+004  0.10627841E+004  0.10642330E+004  0.10637371E+004  0.10622780E+004  0.10607080E+004
0.10578400E+004  0.10574301E+004  0.10590150E+004  0.10609139E+004  0.10604810E+004  0.10579690E+004  0.10545610E+004  0.10522670E+004  0.10509640E+004  0.10497450E+004  0.10495341E+004  0.10471610E+004  0.10420460E+004  0.10363320E+004  0.10320140E+004  0.10292310E+004  0.10265439E+004  0.10235480E+004  0.10208470E+004  0.10183810E+004  0.10165270E+004  0.10153050E+004  0.10154460E+004  0.10164430E+004  0.10176750E+004  0.10189160E+004  0.10205410E+004  0.10224660E+004  0.10232780E+004  0.10256429E+004  0.10349860E+004  0.10519900E+004  0.10686050E+004  0.10775959E+004  0.10788480E+004  0.10769930E+004  0.10752770E+004  0.10729500E+004  0.10687340E+004  0.10643960E+004  0.10625420E+004  0.10617090E+004  0.10601160E+004  0.10582780E+004  0.10582390E+004  0.10588500E+004  0.10581930E+004  0.10566300E+004  0.10568530E+004  0.10590880E+004  0.10616110E+004  0.10631920E+004  0.10635050E+004  0.10641240E+004  0.10633650E+004  0.10613260E+004  0.10596990E+004  0.10597920E+004  0.10615861E+004  0.10646870E+004  0.10669260E+004  0.10670890E+004  0.10660690E+004  0.10641219E+004
0.10574100E+004  0.10563459E+004  0.10577550E+004  0.10598530E+004  0.10603719E+004  0.10588560E+004  0.10560601E+004  0.10543470E+004  0.10542260E+004  0.10550129E+004  0.10555820E+004  0.10540649E+004  0.10488879E+004  0.10420410E+004  0.10364260E+004  0.10322080E+004  0.10284871E+004  0.10252660E+004  0.10221960E+004  0.10201870E+004  0.10187950E+004  0.10175910E+004  0.10173990E+004  0.10187380E+004  0.10208210E+004  0.10221960E+004  0.10230910E+004  0.10240430E+004  0.10252330E+004  0.10291730E+004  0.10393270E+004  0.10553960E+004  0.10710330E+004  0.10789969E+004  0.10796490E+004  0.10765490E+004  0.10733760E+004  0.10702419E+004  0.10657419E+004  0.10616750E+004  0.10601910E+004  0.10600909E+004  0.10586610E+004  0.10572061E+004  0.10574760E+004  0.10587140E+004  0.10587950E+004  0.10581949E+004  0.10582640E+004  0.10598101E+004  0.10619650E+004  0.10626530E+004  0.10621760E+004  0.10619611E+004  0.10615240E+004  0.10604370E+004  0.10601570E+004  0.10607350E+004  0.10629890E+004  0.10664850E+004  0.10687570E+004  0.10693220E+004  0.10683719E+004  0.10664390E+004
0.10570640E+004  0.10558120E+004  0.10571591E+004  0.10596730E+004  0.10606820E+004  0.10601580E+004  0.10580450E+004  0.10565880E+004  0.10569220E+004  0.10584460E+004  0.10601080E+004  0.10597490E+004  0.10552090E+004  0.10479919E+004  0.10409950E+004  0.10352130E+004  0.10303490E+004  0.10262880E+004  0.10232240E+004  0.10212510E+004  0.10204070E+004  0.10197060E+004  0.10194410E+004  0.10206160E+004  0.10224950E+004  0.10236860E+004  0.10241710E+004  0.10251150E+004  0.10277880E+004  0.10337220E+004  0.10434890E+004  0.10566660E+004  0.10699580E+004  0.10774880E+004  0.10775210E+004  0.10742209E+004  0.10709240E+004  0.10680820E+004  0.10639449E+004  0.10605439E+004  0.10600179E+004  0.10601340E+004  0.10590000E+004  0.10575300E+004  0.10576620E+004  0.10587111E+004  0.10591240E+004  0.10588590E+004  0.10589180E+004  0.10601300E+004  0.10620170E+004  0.10631830E+004  0.10627000E+004  0.10621479E+004  0.10616110E+004  0.10611310E+004  0.10609030E+004  0.10613370E+004  0.10638740E+004  0.10675341E+004  0.10701360E+004  0.10706240E+004  0.10692480E+004  0.10668521E+004
0.10571340E+004  0.10558440E+004  0.10575750E+004  0.10600280E+004  0.10613060E+004  0.10610081E+004  0.10593430E+004  0.10580520E+004  0.10584659E+004  0.10600720E+004  0.10620500E+004  0.10630670E+004  0.10600190E+004  0.10523650E+004  0.10444950E+004  0.10377841E+004  0.10316770E+004  0.10268790E+004  0.10236130E+004  0.10215470E+004  0.10204920E+004  0.10209600E+004  0.10213870E+004  0.10218090E+004  0.10225690E+004  0.10230570E+004  0.10238550E+004  0.10257240E+004  0.10303610E+004  0.10376670E+004  0.10464821E+004  0.10567800E+004  0.10675280E+004  0.10738530E+004  0.10742290E+004  0.10714070E+004  0.10692469E+004  0.10670880E+004  0.10638020E+004  0.10613860E+004  0.10612720E+004  0.10617650E+004  0.10604830E+004  0.10589310E+004  0.10588781E+004  0.10596130E+004  0.10595510E+004  0.10588810E+004  0.10590540E+004  0.10600031E+004  0.10618521E+004  0.10634540E+004  0.10640430E+004  0.10640229E+004  0.10632729E+004  0.10624210E+004  0.10620861E+004  0.10623890E+004  0.10644510E+004  0.10680330E+004  0.10710710E+004  0.10714730E+004  0.10691930E+004  0.10660110E+004
0.10574020E+004  0.10564449E+004  0.10579640E+004  0.10605861E+004  0.10617960E+004  0.10608440E+004  0.10591670E+004  0.10582469E+004  0.10586780E+004  0.10603090E+004  0.10622400E+004  0.10637190E+004  0.10615150E+004  0.10544010E+004  0.10461460E+004  0.10388640E+004  0.10322220E+004  0.10264301E+004  0.10225460E+004  0.10202760E+004  0.10202500E+004  0.10213940E+004  0.10225570E+004  0.10222150E+004  0.10215210E+004  0.10214370E+004  0.10229450E+004  0.10266130E+004  0.10326591E+004  0.10403560E+004  0.10479700E+004  0.10563220E+004  0.10643810E+004  0.10696940E+004  0.10708850E+004  0.10698719E+004  0.10688070E+004  0.10674030E+004  0.10652820E+004  0.10634630E+004  0.10633500E+004  0.10635990E+004  0.10626219E+004  0.10615100E+004  0.10612510E+004  0.10610240E+004  0.10597321E+004  0.10583950E+004  0.10584540E+004  0.10596440E+004  0.10611541E+004  0.10627000E+004  0.10644000E+004  0.10654720E+004  0.10653230E+004  0.10645250E+004  0.10640601E+004  0.10642770E+004  0.10659020E+004  0.10688890E+004  0.10713450E+004  0.10711150E+004  0.10681860E+004  0.10649980E+004
0.10575360E+004  0.10570750E+004  0.10582090E+004  0.10609220E+004  0.10619170E+004  0.10603879E+004  0.10585811E+004  0.10578990E+004  0.10581750E+004  0.10593010E+004  0.10609100E+004  0.10619260E+004  0.10603361E+004  0.10541851E+004  0.10461600E+004  0.10386801E+004  0.10313040E+004  0.10249680E+004  0.10202940E+004  0.10183810E+004  0.10192200E+004  0.10215570E+004  0.10227100E+004  0.10220510E+004  0.10204680E+004  0.10202640E+004  0.10222460E+004  0.10270890E+004  0.10340490E+004  0.10413250E+004  0.10482720E+004  0.10550250E+004  0.10610950E+004  0.10655270E+004  0.10685220E+004  0.10697111E+004  0.10694139E+004  0.10685341E+004  0.10671281E+004  0.10655360E+004  0.10653110E+004  0.10658000E+004  0.10653020E+004  0.10645190E+004  0.10642910E+004  0.10628390E+004  0.10600861E+004  0.10578400E+004  0.10576660E+004  0.10588970E+004  0.10601960E+004  0.10614490E+004  0.10632690E+004  0.10654390E+004  0.10668571E+004  0.10668621E+004  0.10665909E+004  0.10667260E+004  0.10679611E+004  0.10696960E+004  0.10705060E+004  0.10697750E+004  0.10663290E+004  0.10633521E+004
0.10586110E+004  0.10578750E+004  0.10593030E+004  0.10615649E+004  0.10620880E+004  0.10606331E+004  0.10587510E+004  0.10580020E+004  0.10578820E+004  0.10583101E+004  0.10591420E+004  0.10598290E+004  0.10580880E+004  0.10523750E+004  0.10453070E+004  0.10378800E+004  0.10299041E+004  0.10230160E+004  0.10183600E+004  0.10165220E+004  0.10180750E+004  0.10208520E+004  0.10224710E+004  0.10218730E+004  0.10206160E+004  0.10201300E+004  0.10222270E+004  0.10274720E+004  0.10343270E+004  0.10413450E+004  0.10476219E+004  0.10533700E+004  0.10584440E+004  0.10632209E+004  0.10676890E+004  0.10706560E+004  0.10705439E+004  0.10693540E+004  0.10680190E+004  0.10671190E+004  0.10674969E+004  0.10679990E+004  0.10679301E+004  0.10674919E+004  0.10670640E+004  0.10650830E+004  0.10615179E+004  0.10585470E+004  0.10573020E+004  0.10582120E+004  0.10593630E+004  0.10600540E+004  0.10615330E+004  0.10646980E+004  0.10676250E+004  0.10690400E+004  0.10692550E+004  0.10692950E+004  0.10697159E+004  0.10700940E+004  0.10697500E+004  0.10681760E+004  0.10646530E+004  0.10611949E+004
0.10605200E+004  0.10596670E+004  0.10610060E+004  0.10629871E+004  0.10631180E+004  0.10618101E+004  0.10596670E+004  0.10581479E+004  0.10579630E+004  0.10581810E+004  0.10582111E+004  0.10577920E+004  0.10555220E+004  0.10501030E+004  0.10433210E+004  0.10362850E+004  0.10286801E+004  0.10217420E+004  0.10171900E+004  0.10158950E+004  0.10174760E+004  0.10204320E+004  0.10220960E+004  0.10218460E+004  0.10207120E+004  0.10205530E+004  0.10228600E+004  0.10276740E+004  0.10340880E+004  0.10408860E+004  0.10469490E+004  0.10521250E+004  0.10570640E+004  0.10628790E+004  0.10691240E+004  0.10721770E+004  0.10715070E+004  0.10694230E+004  0.10677690E+004  0.10677010E+004  0.10686390E+004  0.10697000E+004  0.10700270E+004  0.10702240E+004  0.10699550E+004  0.10682111E+004  0.10647220E+004  0.10608979E+004  0.10583030E+004  0.10578990E+004  0.10583650E+004  0.10585720E+004  0.10603490E+004  0.10637520E+004  0.10680090E+004  0.10703920E+004  0.10709480E+004  0.10711770E+004  0.10712159E+004  0.10709690E+004  0.10696770E+004  0.10666660E+004  0.10633500E+004  0.10598990E+004
0.10627590E+004  0.10620320E+004  0.10629620E+004  0.10645840E+004  0.10646121E+004  0.10634480E+004  0.10614351E+004  0.10594110E+004  0.10584080E+004  0.10585100E+004  0.10580710E+004  0.10566429E+004  0.10537410E+004  0.10479730E+004  0.10413320E+004  0.10348409E+004  0.10278571E+004  0.10215950E+004  0.10176470E+004  0.10165780E+004  0.10181400E+004  0.10205340E+004  0.10215200E+004  0.10211940E+004  0.10206070E+004  0.10208270E+004  0.10230890E+004  0.10273870E+004  0.10332250E+004  0.10401940E+004  0.10464919E+004  0.10516880E+004  0.10569611E+004  0.10640450E+004  0.10714720E+004  0.10740150E+004  0.10719270E+004  0.10688510E+004  0.10666281E+004  0.10664000E+004  0.10682150E+004  0.10700360E+004  0.10709510E+004  0.10715341E+004  0.10720179E+004  0.10712321E+004  0.10687430E+004  0.10647581E+004  0.10610140E+004  0.10584730E+004  0.10574189E+004  0.10577290E+004  0.10596320E+004  0.10635110E+004  0.10675210E+004  0.10700500E+004  0.10713430E+004  0.10722120E+004  0.10723140E+004  0.10719600E+004  0.10697010E+004  0.10662570E+004  0.10624900E+004  0.10592330E+004
0.10652200E+004  0.10645291E+004  0.10648979E+004  0.10660480E+004  0.10662581E+004  0.10654280E+004  0.10639680E+004  0.10619150E+004  0.10604590E+004  0.10597910E+004  0.10589910E+004  0.10567440E+004  0.10526610E+004  0.10468240E+004  0.10404170E+004  0.10346790E+004  0.10284969E+004  0.10228690E+004  0.10192960E+004  0.10181620E+004  0.10194610E+004  0.10208880E+004  0.10208530E+004  0.10202160E+004  0.10199620E+004  0.10204680E+004  0.10223240E+004  0.10261530E+004  0.10319260E+004  0.10386710E+004  0.10454430E+004  0.10514840E+004  0.10573540E+004  0.10657620E+004  0.10739430E+004  0.10761670E+004  0.10729930E+004  0.10686810E+004  0.10652260E+004  0.10647729E+004  0.10662469E+004  0.10680820E+004  0.10693920E+004  0.10705100E+004  0.10721060E+004  0.10731460E+004  0.10719570E+004  0.10687350E+004  0.10639561E+004  0.10595110E+004  0.10571150E+004  0.10573710E+004  0.10596770E+004  0.10632600E+004  0.10664250E+004  0.10686300E+004  0.10707220E+004  0.10724250E+004  0.10733070E+004  0.10724980E+004  0.10705590E+004  0.10673090E+004  0.10630959E+004  0.10600690E+004
0.10666570E+004  0.10665670E+004  0.10668929E+004  0.10680551E+004  0.10685880E+004  0.10681820E+004  0.10670510E+004  0.10658490E+004  0.10648080E+004  0.10637271E+004  0.10614240E+004  0.10575031E+004  0.10521310E+004  0.10459950E+004  0.10403860E+004  0.10351230E+004  0.10301570E+004  0.10253920E+004  0.10215210E+004  0.10197290E+004  0.10202760E+004  0.10212160E+004  0.10205080E+004  0.10196190E+004  0.10194030E+004  0.10196160E+004  0.10207540E+004  0.10240551E+004  0.10296331E+004  0.10362830E+004  0.10434720E+004  0.10506890E+004  0.10576689E+004  0.10667030E+004  0.10762970E+004  0.10784180E+004  0.10748920E+004  0.10693070E+004  0.10647540E+004  0.10628020E+004  0.10629750E+004  0.10639940E+004  0.10655649E+004  0.10678120E+004  0.10711479E+004  0.10741410E+004  0.10744620E+004  0.10713560E+004  0.10658890E+004  0.10604690E+004  0.10576270E+004  0.10577380E+004  0.10600060E+004  0.10629070E+004  0.10649500E+004  0.10671591E+004  0.10698810E+004  0.10724189E+004  0.10736300E+004  0.10732180E+004  0.10719399E+004  0.10696949E+004  0.10661949E+004  0.10630291E+004
0.10675610E+004  0.10680070E+004  0.10688719E+004  0.10700040E+004  0.10709780E+004  0.10713730E+004  0.10713990E+004  0.10711060E+004  0.10705699E+004  0.10692950E+004  0.10663030E+004  0.10602629E+004  0.10523311E+004  0.10455280E+004  0.10408270E+004  0.10361460E+004  0.10317030E+004  0.10280060E+004  0.10237460E+004  0.10208260E+004  0.10207890E+004  0.10210490E+004  0.10202490E+004  0.10199230E+004  0.10196320E+004  0.10189550E+004  0.10192260E+004  0.10216510E+004  0.10269840E+004  0.10337450E+004  0.10411490E+004  0.10491851E+004  0.10566050E+004  0.10661080E+004  0.10762350E+004  0.10796460E+004  0.10761320E+004  0.10706630E+004  0.10649680E+004  0.10610150E+004  0.10591610E+004  0.10594500E+004  0.10613010E+004  0.10644160E+004  0.10687190E+004  0.10731440E+004  0.10749500E+004  0.10722271E+004  0.10666331E+004  0.10615380E+004  0.10591479E+004  0.10591090E+004  0.10604680E+004  0.10618900E+004  0.10634810E+004  0.10656290E+004  0.10686100E+004  0.10718120E+004  0.10733540E+004  0.10732111E+004  0.10728970E+004  0.10721530E+004  0.10699640E+004  0.10669790E+004
0.10689850E+004  0.10696580E+004  0.10706720E+004  0.10716880E+004  0.10729980E+004  0.10741410E+004  0.10750460E+004  0.10758621E+004  0.10755710E+004  0.10744480E+004  0.10715601E+004  0.10640670E+004  0.10534210E+004  0.10464220E+004  0.10423850E+004  0.10381920E+004  0.10339780E+004  0.10300570E+004  0.10259030E+004  0.10224680E+004  0.10216120E+004  0.10212530E+004  0.10206880E+004  0.10206220E+004  0.10200990E+004  0.10186660E+004  0.10183480E+004  0.10203760E+004  0.10249550E+004  0.10312250E+004  0.10385990E+004  0.10471520E+004  0.10549620E+004  0.10637061E+004  0.10730060E+004  0.10771870E+004  0.10759740E+004  0.10718690E+004  0.10658051E+004  0.10598430E+004  0.10565100E+004  0.10560590E+004  0.10576390E+004  0.10606870E+004  0.10648120E+004  0.10694290E+004  0.10728149E+004  0.10710430E+004  0.10657729E+004  0.10620020E+004  0.10602061E+004  0.10594690E+004  0.10600000E+004  0.10606520E+004  0.10616801E+004  0.10636140E+004  0.10663540E+004  0.10697260E+004  0.10720740E+004  0.10726350E+004  0.10728940E+004  0.10735710E+004  0.10727190E+004  0.10704490E+004
0.10705620E+004  0.10714750E+004  0.10729750E+004  0.10742380E+004  0.10751899E+004  0.10761370E+004  0.10774650E+004  0.10787410E+004  0.10791000E+004  0.10780820E+004  0.10751780E+004  0.10664950E+004  0.10553580E+004  0.10483840E+004  0.10449760E+004  0.10413590E+004  0.10370010E+004  0.10329020E+004  0.10282629E+004  0.10247960E+004  0.10234900E+004  0.10227180E+004  0.10220610E+004  0.10215060E+004  0.10202850E+004  0.10186190E+004  0.10180770E+004  0.10199060E+004  0.10235330E+004  0.10286870E+004  0.10364980E+004  0.10455031E+004  0.10535291E+004  0.10604280E+004  0.10668730E+004  0.10713000E+004  0.10736130E+004  0.10724550E+004  0.10667480E+004  0.10594351E+004  0.10549520E+004  0.10543800E+004  0.10554640E+004  0.10574720E+004  0.10602280E+004  0.10644630E+004  0.10683250E+004  0.10680649E+004  0.10642300E+004  0.10611860E+004  0.10596990E+004  0.10589399E+004  0.10588260E+004  0.10592950E+004  0.10597990E+004  0.10610081E+004  0.10635570E+004  0.10669180E+004  0.10701591E+004  0.10717450E+004  0.10725930E+004  0.10736840E+004  0.10741940E+004  0.10730160E+004
0.10717810E+004  0.10735229E+004  0.10755090E+004  0.10773450E+004  0.10781670E+004  0.10783140E+004  0.10791541E+004  0.10805649E+004  0.10812950E+004  0.10806270E+004  0.10774800E+004  0.10692960E+004  0.10578290E+004  0.10507150E+004  0.10474030E+004  0.10440840E+004  0.10396930E+004  0.10349871E+004  0.10309080E+004  0.10275060E+004  0.10256230E+004  0.10248660E+004  0.10239570E+004  0.10225320E+004  0.10205990E+004  0.10185190E+004  0.10176140E+004  0.10191020E+004  0.10221080E+004  0.10270790E+004  0.10351851E+004  0.10449230E+004  0.10524960E+004  0.10573550E+004  0.10605100E+004  0.10644120E+004  0.10700880E+004  0.10721470E+004  0.10675160E+004  0.10594890E+004  0.10545959E+004  0.10536920E+004  0.10544630E+004  0.10548950E+004  0.10560570E+004  0.10594510E+004  0.10634160E+004  0.10642020E+004  0.10621110E+004  0.10597209E+004  0.10586490E+004  0.10580970E+004  0.10578380E+004  0.10581591E+004  0.10586490E+004  0.10594480E+004  0.10614189E+004  0.10649919E+004  0.10682570E+004  0.10703610E+004  0.10718990E+004  0.10731560E+004  0.10745070E+004  0.10742930E+004
0.10727581E+004  0.10747100E+004  0.10778950E+004  0.10801350E+004  0.10810570E+004  0.10810790E+004  0.10808929E+004  0.10817560E+004  0.10825740E+004  0.10823270E+004  0.10800590E+004  0.10727920E+004  0.10616140E+004  0.10531320E+004  0.10486160E+004  0.10450699E+004  0.10409120E+004  0.10365820E+004  0.10325020E+004  0.10293990E+004  0.10277170E+004  0.10268420E+004  0.10261080E+004  0.10240680E+004  0.10209550E+004  0.10182410E+004  0.10168620E+004  0.10179320E+004  0.10209290E+004  0.10260490E+004  0.10344910E+004  0.10442600E+004  0.10515179E+004  0.10551410E+004  0.10562990E+004  0.10589611E+004  0.10653669E+004  0.10705540E+004  0.10679530E+004  0.10603890E+004  0.10550861E+004  0.10539250E+004  0.10536490E+004  0.10532280E+004  0.10534890E+004  0.10558960E+004  0.10590040E+004  0.10603540E+004  0.10591320E+004  0.10572581E+004  0.10562939E+004  0.10559010E+004  0.10562070E+004  0.10573810E+004  0.10583571E+004  0.10591820E+004  0.10613051E+004  0.10644091E+004  0.10672939E+004  0.10696169E+004  0.10712629E+004  0.10727180E+004  0.10742930E+004  0.10746310E+004
0.10729230E+004  0.10749561E+004  0.10785280E+004  0.10812560E+004  0.10826050E+004  0.10829790E+004  0.10824280E+004  0.10826250E+004  0.10836880E+004  0.10841930E+004  0.10832200E+004  0.10780980E+004  0.10675350E+004  0.10563230E+004  0.10490950E+004  0.10451580E+004  0.10414919E+004  0.10373380E+004  0.10332090E+004  0.10302290E+004  0.10289510E+004  0.10282960E+004  0.10277950E+004  0.10255160E+004  0.10212550E+004  0.10170810E+004  0.10154140E+004  0.10164280E+004  0.10199670E+004  0.10252900E+004  0.10329189E+004  0.10419700E+004  0.10490120E+004  0.10523760E+004  0.10534570E+004  0.10549890E+004  0.10606730E+004  0.10676310E+004  0.10674871E+004  0.10612939E+004  0.10562040E+004  0.10544260E+004  0.10538390E+004  0.10526510E+004  0.10525389E+004  0.10533060E+004  0.10543220E+004  0.10552590E+004  0.10546490E+004  0.10530470E+004  0.10518250E+004  0.10520580E+004  0.10534091E+004  0.10557581E+004  0.10578040E+004  0.10595229E+004  0.10619050E+004  0.10649840E+004  0.10681620E+004  0.10704110E+004  0.10716460E+004  0.10729260E+004  0.10740260E+004  0.10742690E+004
0.10727340E+004  0.10746100E+004  0.10778199E+004  0.10802030E+004  0.10818690E+004  0.10825780E+004  0.10824510E+004  0.10832350E+004  0.10851290E+004  0.10867480E+004  0.10874200E+004  0.10844840E+004  0.10753361E+004  0.10615551E+004  0.10506010E+004  0.10453500E+004  0.10424940E+004  0.10383430E+004  0.10333960E+004  0.10304771E+004  0.10293610E+004  0.10287490E+004  0.10282550E+004  0.10261320E+004  0.10210230E+004  0.10158530E+004  0.10132200E+004  0.10140690E+004  0.10183130E+004  0.10239170E+004  0.10300820E+004  0.10375520E+004  0.10446390E+004  0.10487350E+004  0.10504250E+004  0.10520930E+004  0.10570699E+004  0.10643571E+004  0.10659360E+004  0.10618840E+004  0.10578430E+004  0.10560699E+004  0.10551281E+004  0.10538409E+004  0.10524900E+004  0.10506660E+004  0.10487700E+004  0.10484580E+004  0.10483480E+004  0.10473510E+004  0.10469900E+004  0.10474930E+004  0.10496360E+004  0.10528740E+004  0.10565750E+004  0.10598450E+004  0.10627600E+004  0.10663080E+004  0.10698030E+004  0.10722720E+004  0.10728450E+004  0.10731541E+004  0.10736270E+004  0.10734930E+004
0.10724821E+004  0.10737360E+004  0.10764091E+004  0.10788250E+004  0.10798051E+004  0.10803750E+004  0.10812209E+004  0.10833300E+004  0.10861720E+004  0.10890420E+004  0.10910400E+004  0.10900551E+004  0.10822030E+004  0.10676780E+004  0.10538750E+004  0.10477130E+004  0.10457000E+004  0.10418390E+004  0.10356840E+004  0.10315190E+004  0.10301219E+004  0.10290870E+004  0.10282540E+004  0.10260959E+004  0.10208820E+004  0.10151290E+004  0.10112380E+004  0.10120570E+004  0.10167860E+004  0.10216980E+004  0.10259910E+004  0.10322090E+004  0.10392889E+004  0.10444220E+004  0.10472330E+004  0.10495300E+004  0.10545280E+004  0.10608900E+004  0.10634220E+004  0.10619520E+004  0.10602240E+004  0.10589720E+004  0.10577820E+004  0.10555410E+004  0.10526410E+004  0.10485240E+004  0.10438000E+004  0.10419910E+004  0.10421780E+004  0.10421541E+004  0.10422220E+004  0.10434930E+004  0.10455699E+004  0.10493260E+004  0.10545720E+004  0.10595420E+004  0.10635750E+004  0.10672209E+004  0.10711980E+004  0.10736920E+004  0.10739800E+004  0.10730300E+004  0.10726060E+004  0.10723910E+004
0.10712990E+004  0.10721440E+004  0.10745909E+004  0.10770909E+004  0.10779620E+004  0.10779800E+004  0.10800620E+004  0.10835280E+004  0.10868810E+004  0.10900740E+004  0.10928580E+004  0.10928330E+004  0.10866920E+004  0.10729449E+004  0.10589570E+004  0.10527990E+004  0.10524640E+004  0.10490530E+004  0.10411110E+004  0.10348320E+004  0.10323400E+004  0.10307610E+004  0.10291130E+004  0.10264871E+004  0.10215120E+004  0.10149170E+004  0.10107460E+004  0.10118070E+004  0.10167200E+004  0.10196970E+004  0.10218090E+004  0.10269930E+004  0.10342340E+004  0.10402000E+004  0.10444480E+004  0.10481130E+004  0.10529620E+004  0.10579830E+004  0.10608800E+004  0.10623459E+004  0.10625830E+004  0.10615780E+004  0.10592450E+004  0.10559500E+004  0.10517371E+004  0.10462970E+004  0.10404110E+004  0.10379790E+004  0.10382620E+004  0.10385720E+004  0.10395900E+004  0.10408270E+004  0.10429810E+004  0.10465160E+004  0.10521240E+004  0.10585070E+004  0.10636060E+004  0.10677460E+004  0.10718020E+004  0.10745580E+004  0.10747280E+004  0.10729540E+004  0.10714750E+004  0.10710389E+004
0.10693640E+004  0.10704449E+004  0.10726210E+004  0.10752531E+004  0.10764070E+004  0.10768669E+004  0.10795050E+004  0.10838070E+004  0.10876250E+004  0.10904640E+004  0.10924680E+004  0.10928850E+004  0.10885300E+004  0.10775570E+004  0.10653220E+004  0.10603960E+004  0.10613250E+004  0.10590780E+004  0.10496379E+004  0.10400190E+004  0.10353690E+004  0.10332990E+004  0.10309470E+004  0.10278870E+004  0.10224910E+004  0.10157060E+004  0.10122470E+004  0.10145730E+004  0.10186760E+004  0.10192190E+004  0.10189610E+004  0.10236490E+004  0.10307780E+004  0.10371250E+004  0.10429620E+004  0.10484659E+004  0.10534390E+004  0.10570740E+004  0.10603510E+004  0.10640770E+004  0.10652620E+004  0.10628220E+004  0.10587720E+004  0.10541180E+004  0.10494880E+004  0.10439260E+004  0.10387939E+004  0.10364530E+004  0.10366340E+004  0.10376379E+004  0.10388770E+004  0.10406770E+004  0.10427460E+004  0.10459830E+004  0.10508750E+004  0.10574910E+004  0.10635250E+004  0.10681460E+004  0.10724030E+004  0.10752990E+004  0.10753630E+004  0.10734449E+004  0.10709780E+004  0.10698020E+004
0.10673450E+004  0.10679740E+004  0.10701210E+004  0.10731000E+004  0.10750291E+004  0.10762260E+004  0.10789880E+004  0.10833210E+004  0.10872220E+004  0.10893290E+004  0.10905190E+004  0.10907710E+004  0.10883160E+004  0.10814189E+004  0.10724980E+004  0.10687010E+004  0.10698979E+004  0.10683810E+004  0.10585360E+004  0.10457469E+004  0.10385530E+004  0.10354659E+004  0.10330580E+004  0.10295129E+004  0.10243910E+004  0.10183540E+004  0.10165280E+004  0.10207620E+004  0.10240780E+004  0.10217710E+004  0.10196430E+004  0.10232280E+004  0.10299780E+004  0.10365490E+004  0.10432330E+004  0.10499160E+004  0.10550699E+004  0.10583060E+004  0.10617480E+004  0.10662150E+004  0.10669561E+004  0.10628260E+004  0.10568230E+004  0.10513590E+004  0.10469760E+004  0.10427490E+004  0.10390500E+004  0.10374440E+004  0.10371980E+004  0.10382460E+004  0.10397430E+004  0.10416230E+004  0.10442410E+004  0.10471541E+004  0.10511400E+004  0.10567740E+004  0.10629120E+004  0.10680300E+004  0.10729449E+004  0.10758000E+004  0.10759070E+004  0.10742130E+004  0.10719260E+004  0.10702440E+004
0.10649500E+004  0.10648810E+004  0.10667990E+004  0.10703070E+004  0.10733831E+004  0.10750150E+004  0.10772970E+004  0.10809910E+004  0.10844520E+004  0.10865540E+004  0.10874640E+004  0.10877271E+004  0.10872570E+004  0.10841390E+004  0.10785880E+004  0.10752450E+004  0.10758110E+004  0.10740100E+004  0.10641650E+004  0.10503510E+004  0.10416219E+004  0.10378979E+004  0.10352090E+004  0.10319880E+004  0.10278650E+004  0.10235510E+004  0.10233030E+004  0.10289240E+004  0.10323831E+004  0.10286541E+004  0.10247500E+004  0.10267760E+004  0.10324550E+004  0.10384399E+004  0.10449480E+004  0.10517419E+004  0.10572290E+004  0.10611720E+004  0.10644520E+004  0.10671610E+004  0.10662950E+004  0.10605970E+004  0.10537450E+004  0.10484130E+004  0.10452640E+004  0.10428929E+004  0.10412880E+004  0.10404480E+004  0.10395510E+004  0.10396040E+004  0.10409930E+004  0.10433250E+004  0.10460220E+004  0.10485780E+004  0.10516281E+004  0.10560840E+004  0.10611801E+004  0.10671500E+004  0.10726720E+004  0.10757650E+004  0.10766541E+004  0.10760620E+004  0.10746710E+004  0.10732500E+004
