0.10133840E+004  0.10123160E+004  0.10102910E+004  0.10090030E+004  0.10096640E+004  0.10092400E+004  0.10074590E+004  0.10048490E+004  0.10024080E+004  0.99968201E+003  0.99570300E+003  0.98996399E+003  0.98354102E+003  0.98054901E+003  0.97967102E+003  0.98015601E+003  0.98192999E+003  0.98516498E+003  0.98810699E+003  0.98973798E+003  0.98798102E+003  0.98427197E+003  0.97935498E+003  0.97574402E+003  0.97393500E+003  0.97445203E+003  0.97539801E+003  0.97729999E+003  0.97760101E+003  0.97846399E+003  0.98175897E+003  0.98488898E+003  0.98773102E+003  0.99048700E+003  0.99284003E+003  0.99475201E+003  0.99555499E+003  0.99428601E+003  0.99281201E+003  0.99193500E+003  0.99228400E+003  0.99314301E+003  0.99461798E+003  0.99562701E+003  0.99604901E+003  0.99551599E+003  0.99281897E+003  0.99035602E+003  0.98981598E+003  0.98887799E+003  0.98699298E+003  0.98509100E+003  0.98264301E+003  0.98306299E+003  0.98551898E+003  0.98757300E+003  0.98865900E+003  0.98989502E+003  0.99334399E+003  0.99808099E+003  0.10018150E+004  0.10047470E+004  0.10074330E+004  0.10098780E+004
0.10143440E+004  0.10125510E+004  0.10109830E+004  0.10109250E+004  0.10113540E+004  0.10111770E+004  0.10094280E+004  0.10074520E+004  0.10051580E+004  0.10031830E+004  0.10001320E+004  0.99331702E+003  0.98521600E+003  0.98089203E+003  0.98089301E+003  0.98232397E+003  0.98365002E+003  0.98498798E+003  0.98721802E+003  0.98913599E+003  0.98904199E+003  0.98519000E+003  0.98012701E+003  0.97533502E+003  0.97344501E+003  0.97240100E+003  0.97389301E+003  0.97677502E+003  0.97863501E+003  0.97980103E+003  0.98218402E+003  0.98485999E+003  0.98708301E+003  0.98930902E+003  0.99222998E+003  0.99579102E+003  0.99766699E+003  0.99641901E+003  0.99424902E+003  0.99339600E+003  0.99344397E+003  0.99482599E+003  0.99538098E+003  0.99511798E+003  0.99568701E+003  0.99526599E+003  0.99364203E+003  0.99165399E+003  0.99037500E+003  0.98944098E+003  0.98805701E+003  0.98640900E+003  0.98489600E+003  0.98638898E+003  0.98798199E+003  0.98741998E+003  0.98693701E+003  0.98775500E+003  0.99077502E+003  0.99501801E+003  0.99904498E+003  0.10031040E+004  0.10074210E+004  0.10104620E+004
0.10161430E+004  0.10142660E+004  0.10129120E+004  0.10132490E+004  0.10136630E+004  0.10137580E+004  0.10114340E+004  0.10084930E+004  0.10068490E+004  0.10057330E+004  0.10035700E+004  0.99758099E+003  0.98992603E+003  0.98572400E+003  0.98592200E+003  0.98718298E+003  0.98702399E+003  0.98701001E+003  0.98782300E+003  0.98850598E+003  0.98788000E+003  0.98570398E+003  0.98036700E+003  0.97478601E+003  0.97107703E+003  0.96964398E+003  0.97040601E+003  0.97319397E+003  0.97572699E+003  0.97824200E+003  0.98108698E+003  0.98392499E+003  0.98629102E+003  0.98828601E+003  0.99232599E+003  0.99702698E+003  0.99886798E+003  0.99815900E+003  0.99759003E+003  0.99620203E+003  0.99584302E+003  0.99716199E+003  0.99720898E+003  0.99654102E+003  0.99574799E+003  0.99535400E+003  0.99479797E+003  0.99275098E+003  0.99021301E+003  0.98912598E+003  0.98895502E+003  0.98748102E+003  0.98622803E+003  0.98671198E+003  0.98743701E+003  0.98765698E+003  0.98694897E+003  0.98695300E+003  0.98830798E+003  0.99078400E+003  0.99559802E+003  0.10019240E+004  0.10068180E+004  0.10103560E+004
0.10177180E+004  0.10168830E+004  0.10166940E+004  0.10163020E+004  0.10167840E+004  0.10170480E+004  0.10152770E+004  0.10117980E+004  0.10094870E+004  0.10076150E+004  0.10048740E+004  0.10001290E+004  0.99457202E+003  0.99227100E+003  0.99294202E+003  0.99290399E+003  0.99142102E+003  0.98971100E+003  0.98899298E+003  0.98794202E+003  0.98659601E+003  0.98387500E+003  0.97946503E+003  0.97405200E+003  0.96996997E+003  0.96864203E+003  0.96852802E+003  0.96921600E+003  0.97281799E+003  0.97583398E+003  0.97897498E+003  0.98207800E+003  0.98451398E+003  0.98808398E+003  0.99270099E+003  0.99661499E+003  0.99852197E+003  0.10005460E+004  0.10016080E+004  0.10006750E+004  0.99954901E+003  0.99960199E+003  0.99942902E+003  0.99866199E+003  0.99730701E+003  0.99636499E+003  0.99553400E+003  0.99291699E+003  0.98965002E+003  0.98786200E+003  0.98763501E+003  0.98735797E+003  0.98652002E+003  0.98606598E+003  0.98717401E+003  0.98872400E+003  0.98864099E+003  0.98780603E+003  0.98791699E+003  0.98875800E+003  0.99380701E+003  0.10015780E+004  0.10072530E+004  0.10103820E+004
0.10177900E+004  0.10183000E+004  0.10194740E+004  0.10196910E+004  0.10198870E+004  0.10200600E+004  0.10188990E+004  0.10162220E+004  0.10130790E+004  0.10100510E+004  0.10062390E+004  0.10020740E+004  0.99889502E+003  0.99850403E+003  0.99839099E+003  0.99854797E+003  0.99555103E+003  0.99180402E+003  0.99011401E+003  0.98856201E+003  0.98503802E+003  0.98158002E+003  0.97838202E+003  0.97451001E+003  0.97119000E+003  0.96890100E+003  0.96697998E+003  0.96733197E+003  0.97032300E+003  0.97431500E+003  0.97828302E+003  0.98152197E+003  0.98407599E+003  0.98841602E+003  0.99278101E+003  0.99499103E+003  0.99769897E+003  0.10006570E+004  0.10033890E+004  0.10037160E+004  0.10035060E+004  0.10033670E+004  0.10023180E+004  0.10009740E+004  0.99902802E+003  0.99745001E+003  0.99633600E+003  0.99284302E+003  0.98900403E+003  0.98791199E+003  0.98823401E+003  0.98886200E+003  0.98848499E+003  0.98813098E+003  0.98911298E+003  0.99061401E+003  0.99067297E+003  0.98961798E+003  0.98861798E+003  0.98972198E+003  0.99554199E+003  0.10032860E+004  0.10083910E+004  0.10110750E+004
0.10178690E+004  0.10189480E+004  0.10206090E+004  0.10215880E+004  0.10215760E+004  0.10220960E+004  0.10209690E+004  0.10184790E+004  0.10158260E+004  0.10124640E+004  0.10096890E+004  0.10068700E+004  0.10045670E+004  0.10030820E+004  0.10029590E+004  0.10026920E+004  0.99963599E+003  0.99467798E+003  0.99285199E+003  0.99031598E+003  0.98515601E+003  0.98132501E+003  0.97920001E+003  0.97653198E+003  0.97281702E+003  0.96911902E+003  0.96613397E+003  0.96639001E+003  0.96946802E+003  0.97460101E+003  0.97982098E+003  0.98267798E+003  0.98525897E+003  0.98911200E+003  0.99276001E+003  0.99551501E+003  0.99775201E+003  0.10002140E+004  0.10017240E+004  0.10035320E+004  0.10052000E+004  0.10058860E+004  0.10050290E+004  0.10033470E+004  0.10003950E+004  0.99770599E+003  0.99660699E+003  0.99359601E+003  0.99081000E+003  0.98997998E+003  0.99086499E+003  0.99138300E+003  0.99106500E+003  0.99062299E+003  0.99153601E+003  0.99246198E+003  0.99281897E+003  0.99159998E+003  0.98990503E+003  0.99135797E+003  0.99797400E+003  0.10054850E+004  0.10102540E+004  0.10135920E+004
0.10194700E+004  0.10204020E+004  0.10223010E+004  0.10232700E+004  0.10228000E+004  0.10228760E+004  0.10217100E+004  0.10196170E+004  0.10173810E+004  0.10150830E+004  0.10139610E+004  0.10124150E+004  0.10100530E+004  0.10081440E+004  0.10073720E+004  0.10073260E+004  0.10050310E+004  0.10006770E+004  0.99724200E+003  0.99363098E+003  0.98921600E+003  0.98458801E+003  0.98161798E+003  0.97872101E+003  0.97465399E+003  0.97046100E+003  0.96760999E+003  0.96839301E+003  0.97221002E+003  0.97785498E+003  0.98212500E+003  0.98435602E+003  0.98671399E+003  0.99061200E+003  0.99385602E+003  0.99659100E+003  0.99976300E+003  0.10008460E+004  0.10001220E+004  0.10004870E+004  0.10036860E+004  0.10068710E+004  0.10077680E+004  0.10063240E+004  0.10035030E+004  0.10001090E+004  0.99754199E+003  0.99555798E+003  0.99374500E+003  0.99279401E+003  0.99226001E+003  0.99267603E+003  0.99171100E+003  0.99162701E+003  0.99342700E+003  0.99527301E+003  0.99514697E+003  0.99380200E+003  0.99200201E+003  0.99369800E+003  0.99994501E+003  0.10061730E+004  0.10119690E+004  0.10172830E+004
0.10220620E+004  0.10233500E+004  0.10252610E+004  0.10264470E+004  0.10253760E+004  0.10236810E+004  0.10229080E+004  0.10209200E+004  0.10180610E+004  0.10163650E+004  0.10173060E+004  0.10174780E+004  0.10157550E+004  0.10143390E+004  0.10137010E+004  0.10127480E+004  0.10100860E+004  0.10054660E+004  0.10012860E+004  0.99831201E+003  0.99453497E+003  0.99027899E+003  0.98576898E+003  0.98078497E+003  0.97603802E+003  0.97202698E+003  0.96980298E+003  0.97164801E+003  0.97616498E+003  0.98100299E+003  0.98471002E+003  0.98645801E+003  0.98845898E+003  0.99254700E+003  0.99540997E+003  0.99816101E+003  0.10008870E+004  0.10012730E+004  0.99919098E+003  0.99873602E+003  0.10024480E+004  0.10076670E+004  0.10108320E+004  0.10102970E+004  0.10075070E+004  0.10044850E+004  0.10016260E+004  0.99892798E+003  0.99655701E+003  0.99454199E+003  0.99347400E+003  0.99270300E+003  0.99271100E+003  0.99277100E+003  0.99535999E+003  0.99717401E+003  0.99675500E+003  0.99488599E+003  0.99473901E+003  0.99642798E+003  0.10006700E+004  0.10066950E+004  0.10131810E+004  0.10188330E+004
0.10247600E+004  0.10262480E+004  0.10277870E+004  0.10291160E+004  0.10284750E+004  0.10258910E+004  0.10236970E+004  0.10214310E+004  0.10176520E+004  0.10162380E+004  0.10190430E+004  0.10219190E+004  0.10215770E+004  0.10208600E+004  0.10193600E+004  0.10166690E+004  0.10121380E+004  0.10066080E+004  0.10027130E+004  0.10009990E+004  0.99943103E+003  0.99603998E+003  0.98993500E+003  0.98271802E+003  0.97654700E+003  0.97217401E+003  0.97051001E+003  0.97301801E+003  0.97759003E+003  0.98187097E+003  0.98541699E+003  0.98687402E+003  0.98922198E+003  0.99276703E+003  0.99511902E+003  0.99717902E+003  0.99912799E+003  0.99933899E+003  0.99847699E+003  0.99975403E+003  0.10048200E+004  0.10108530E+004  0.10142110E+004  0.10148670E+004  0.10119760E+004  0.10079800E+004  0.10055250E+004  0.10024120E+004  0.99831403E+003  0.99569897E+003  0.99435602E+003  0.99409802E+003  0.99372699E+003  0.99586200E+003  0.99786902E+003  0.99913000E+003  0.99822498E+003  0.99720697E+003  0.99732001E+003  0.99847498E+003  0.10012530E+004  0.10071790E+004  0.10137480E+004  0.10188060E+004
0.10266140E+004  0.10275110E+004  0.10284930E+004  0.10295430E+004  0.10294041E+004  0.10269871E+004  0.10243850E+004  0.10213440E+004  0.10172510E+004  0.10163410E+004  0.10200340E+004  0.10233320E+004  0.10244510E+004  0.10242531E+004  0.10212070E+004  0.10164700E+004  0.10118890E+004  0.10062530E+004  0.10021530E+004  0.10010750E+004  0.10004380E+004  0.99728601E+003  0.99110602E+003  0.98343402E+003  0.97730798E+003  0.97140399E+003  0.96941803E+003  0.97276300E+003  0.97721997E+003  0.98086102E+003  0.98411401E+003  0.98659399E+003  0.98887903E+003  0.99124597E+003  0.99286298E+003  0.99355902E+003  0.99412299E+003  0.99476599E+003  0.99694202E+003  0.10008810E+004  0.10070910E+004  0.10128450E+004  0.10169000E+004  0.10182200E+004  0.10160590E+004  0.10117160E+004  0.10074900E+004  0.10040750E+004  0.10004440E+004  0.99827600E+003  0.99714502E+003  0.99591803E+003  0.99775800E+003  0.10008890E+004  0.10027630E+004  0.10026100E+004  0.10018340E+004  0.10014260E+004  0.10006580E+004  0.10008820E+004  0.10031780E+004  0.10083490E+004  0.10134210E+004  0.10178660E+004
0.10275220E+004  0.10274760E+004  0.10278320E+004  0.10285380E+004  0.10286410E+004  0.10278440E+004  0.10258311E+004  0.10222910E+004  0.10179600E+004  0.10174300E+004  0.10207640E+004  0.10231480E+004  0.10243650E+004  0.10231330E+004  0.10183810E+004  0.10139970E+004  0.10105180E+004  0.10064120E+004  0.10021340E+004  0.99941199E+003  0.99666199E+003  0.99338800E+003  0.98854102E+003  0.98317499E+003  0.97786902E+003  0.97235303E+003  0.96885797E+003  0.97197601E+003  0.97592603E+003  0.97878400E+003  0.98294800E+003  0.98640802E+003  0.98758600E+003  0.98958698E+003  0.99130298E+003  0.99109100E+003  0.98956702E+003  0.99014600E+003  0.99398999E+003  0.99978998E+003  0.10050160E+004  0.10097450E+004  0.10146480E+004  0.10180370E+004  0.10183720E+004  0.10147880E+004  0.10096320E+004  0.10052980E+004  0.10030320E+004  0.10014280E+004  0.10000690E+004  0.99983197E+003  0.10020660E+004  0.10055560E+004  0.10067780E+004  0.10056690E+004  0.10050840E+004  0.10040520E+004  0.10030710E+004  0.10026380E+004  0.10046460E+004  0.10091280E+004  0.10142410E+004  0.10174170E+004
0.10276899E+004  0.10272581E+004  0.10267500E+004  0.10268149E+004  0.10276320E+004  0.10280720E+004  0.10268070E+004  0.10233310E+004  0.10192090E+004  0.10188890E+004  0.10214700E+004  0.10227100E+004  0.10229660E+004  0.10198940E+004  0.10143700E+004  0.10113500E+004  0.10097540E+004  0.10065860E+004  0.10023680E+004  0.99675800E+003  0.99187097E+003  0.98905798E+003  0.98638098E+003  0.98329901E+003  0.97972803E+003  0.97419897E+003  0.97026202E+003  0.97135400E+003  0.97417200E+003  0.97620398E+003  0.98036102E+003  0.98464398E+003  0.98639398E+003  0.98833099E+003  0.99007898E+003  0.99012701E+003  0.98763800E+003  0.98682098E+003  0.99141602E+003  0.99738702E+003  0.10010050E+004  0.10046540E+004  0.10108760E+004  0.10167000E+004  0.10189510E+004  0.10164150E+004  0.10111310E+004  0.10077100E+004  0.10053380E+004  0.10031310E+004  0.10014510E+004  0.10011770E+004  0.10038520E+004  0.10066760E+004  0.10075610E+004  0.10074180E+004  0.10060720E+004  0.10049700E+004  0.10038440E+004  0.10024660E+004  0.10034460E+004  0.10085510E+004  0.10139630E+004  0.10175400E+004
0.10275610E+004  0.10265500E+004  0.10254561E+004  0.10253730E+004  0.10260400E+004  0.10268760E+004  0.10261360E+004  0.10229950E+004  0.10201410E+004  0.10201280E+004  0.10219870E+004  0.10232530E+004  0.10221220E+004  0.10163300E+004  0.10108830E+004  0.10097820E+004  0.10097660E+004  0.10058880E+004  0.99980603E+003  0.99377100E+003  0.98876099E+003  0.98656201E+003  0.98599500E+003  0.98459302E+003  0.98226001E+003  0.97737903E+003  0.97187598E+003  0.97051300E+003  0.97221399E+003  0.97394000E+003  0.97696802E+003  0.98147498E+003  0.98462500E+003  0.98668799E+003  0.98833502E+003  0.98799902E+003  0.98662598E+003  0.98615503E+003  0.99045203E+003  0.99624597E+003  0.99900897E+003  0.10012760E+004  0.10083480E+004  0.10156970E+004  0.10184990E+004  0.10169450E+004  0.10130690E+004  0.10098210E+004  0.10068540E+004  0.10046330E+004  0.10027720E+004  0.10023080E+004  0.10038330E+004  0.10051890E+004  0.10057080E+004  0.10059970E+004  0.10053290E+004  0.10042420E+004  0.10025860E+004  0.10008950E+004  0.10016410E+004  0.10067770E+004  0.10124760E+004  0.10171460E+004
0.10270410E+004  0.10254510E+004  0.10243929E+004  0.10243459E+004  0.10247480E+004  0.10253420E+004  0.10246390E+004  0.10223460E+004  0.10208050E+004  0.10212270E+004  0.10224330E+004  0.10233950E+004  0.10206390E+004  0.10141030E+004  0.10089270E+004  0.10092650E+004  0.10096930E+004  0.10048490E+004  0.99785797E+003  0.99190399E+003  0.98764001E+003  0.98552399E+003  0.98497400E+003  0.98382800E+003  0.98179303E+003  0.97809100E+003  0.97337402E+003  0.97091803E+003  0.97160498E+003  0.97254199E+003  0.97416101E+003  0.97812598E+003  0.98218500E+003  0.98460400E+003  0.98622699E+003  0.98682800E+003  0.98607202E+003  0.98767401E+003  0.99256500E+003  0.99734802E+003  0.99758197E+003  0.99860602E+003  0.10059040E+004  0.10140520E+004  0.10169670E+004  0.10154280E+004  0.10126620E+004  0.10099000E+004  0.10075820E+004  0.10061980E+004  0.10055090E+004  0.10054510E+004  0.10048040E+004  0.10036650E+004  0.10027310E+004  0.10022940E+004  0.10022290E+004  0.10014520E+004  0.10007930E+004  0.99981403E+003  0.10008880E+004  0.10048260E+004  0.10109090E+004  0.10164640E+004
0.10261100E+004  0.10246730E+004  0.10234230E+004  0.10234540E+004  0.10240031E+004  0.10240280E+004  0.10231770E+004  0.10217530E+004  0.10212070E+004  0.10217550E+004  0.10222550E+004  0.10215370E+004  0.10182480E+004  0.10124620E+004  0.10084220E+004  0.10090420E+004  0.10094250E+004  0.10043830E+004  0.99772699E+003  0.99146600E+003  0.98671997E+003  0.98471503E+003  0.98260699E+003  0.97958398E+003  0.97690302E+003  0.97471698E+003  0.97367999E+003  0.97275000E+003  0.97177301E+003  0.97134302E+003  0.97216901E+003  0.97515997E+003  0.97884100E+003  0.98191803E+003  0.98455298E+003  0.98646100E+003  0.98731000E+003  0.98924597E+003  0.99446301E+003  0.99721899E+003  0.99499200E+003  0.99552002E+003  0.10027850E+004  0.10113080E+004  0.10142940E+004  0.10120100E+004  0.10092890E+004  0.10076120E+004  0.10072130E+004  0.10072150E+004  0.10072430E+004  0.10074830E+004  0.10063540E+004  0.10039120E+004  0.10022480E+004  0.10012430E+004  0.10007990E+004  0.10009950E+004  0.10008680E+004  0.10003690E+004  0.10010520E+004  0.10044370E+004  0.10095170E+004  0.10141900E+004
0.10248311E+004  0.10236870E+004  0.10225790E+004  0.10224660E+004  0.10224370E+004  0.10221480E+004  0.10216080E+004  0.10207430E+004  0.10206190E+004  0.10210680E+004  0.10208240E+004  0.10189320E+004  0.10154640E+004  0.10109530E+004  0.10085600E+004  0.10091820E+004  0.10082410E+004  0.10027590E+004  0.99576898E+003  0.98970203E+003  0.98498199E+003  0.98294897E+003  0.98059998E+003  0.97659399E+003  0.97272101E+003  0.97127301E+003  0.97239697E+003  0.97246997E+003  0.97156299E+003  0.96999200E+003  0.96948999E+003  0.97142902E+003  0.97389398E+003  0.97762402E+003  0.98162903E+003  0.98545203E+003  0.98769202E+003  0.98903302E+003  0.99153003E+003  0.99318701E+003  0.99202802E+003  0.99294800E+003  0.99943701E+003  0.10075910E+004  0.10107280E+004  0.10089280E+004  0.10063870E+004  0.10052390E+004  0.10052310E+004  0.10063390E+004  0.10070880E+004  0.10074480E+004  0.10067620E+004  0.10050880E+004  0.10038280E+004  0.10034320E+004  0.10027390E+004  0.10021290E+004  0.10023260E+004  0.10025680E+004  0.10029870E+004  0.10054070E+004  0.10091950E+004  0.10122930E+004
0.10228490E+004  0.10223460E+004  0.10219470E+004  0.10214570E+004  0.10208370E+004  0.10203270E+004  0.10200100E+004  0.10196360E+004  0.10192430E+004  0.10191440E+004  0.10179140E+004  0.10153960E+004  0.10121300E+004  0.10092920E+004  0.10087190E+004  0.10096760E+004  0.10068480E+004  0.10002160E+004  0.99265198E+003  0.98670398E+003  0.98321399E+003  0.98117902E+003  0.98013702E+003  0.97749597E+003  0.97318597E+003  0.97115698E+003  0.97223199E+003  0.97237000E+003  0.97098901E+003  0.96887598E+003  0.96671198E+003  0.96615302E+003  0.96849298E+003  0.97287903E+003  0.97816699E+003  0.98338000E+003  0.98581897E+003  0.98534802E+003  0.98681403E+003  0.98978003E+003  0.99124799E+003  0.99252399E+003  0.99718103E+003  0.10040450E+004  0.10081080E+004  0.10066290E+004  0.10045250E+004  0.10039960E+004  0.10038060E+004  0.10043020E+004  0.10057180E+004  0.10060640E+004  0.10060630E+004  0.10058060E+004  0.10056220E+004  0.10054420E+004  0.10046540E+004  0.10035700E+004  0.10039810E+004  0.10050290E+004  0.10056550E+004  0.10072960E+004  0.10092750E+004  0.10111030E+004
0.10204710E+004  0.10210510E+004  0.10216040E+004  0.10211510E+004  0.10200140E+004  0.10193310E+004  0.10190520E+004  0.10185100E+004  0.10174870E+004  0.10163160E+004  0.10144560E+004  0.10111210E+004  0.10079650E+004  0.10063790E+004  0.10078220E+004  0.10091570E+004  0.10050450E+004  0.99726202E+003  0.99026398E+003  0.98526202E+003  0.98191498E+003  0.98069501E+003  0.98117798E+003  0.97948700E+003  0.97551599E+003  0.97417700E+003  0.97408197E+003  0.97257397E+003  0.97063000E+003  0.96791998E+003  0.96445398E+003  0.96315503E+003  0.96520502E+003  0.97018903E+003  0.97613599E+003  0.98102301E+003  0.98444897E+003  0.98368500E+003  0.98462701E+003  0.98941400E+003  0.99324799E+003  0.99462500E+003  0.99715601E+003  0.10019890E+004  0.10051740E+004  0.10049710E+004  0.10038740E+004  0.10038340E+004  0.10033000E+004  0.10031920E+004  0.10038700E+004  0.10048340E+004  0.10056850E+004  0.10067590E+004  0.10073840E+004  0.10078250E+004  0.10062560E+004  0.10042700E+004  0.10046190E+004  0.10056570E+004  0.10069070E+004  0.10087930E+004  0.10104750E+004  0.10111460E+004
0.10179520E+004  0.10198810E+004  0.10209330E+004  0.10204530E+004  0.10193980E+004  0.10186900E+004  0.10181640E+004  0.10170880E+004  0.10154630E+004  0.10134030E+004  0.10106570E+004  0.10072980E+004  0.10039970E+004  0.10028620E+004  0.10058730E+004  0.10072620E+004  0.10022130E+004  0.99406702E+003  0.98849200E+003  0.98394598E+003  0.97996503E+003  0.98027698E+003  0.98181799E+003  0.98087402E+003  0.97803101E+003  0.97655402E+003  0.97552002E+003  0.97268201E+003  0.96938501E+003  0.96687799E+003  0.96295801E+003  0.96116101E+003  0.96401001E+003  0.96890302E+003  0.97425897E+003  0.98045203E+003  0.98548602E+003  0.98504199E+003  0.98464203E+003  0.99021698E+003  0.99549200E+003  0.99734998E+003  0.99894098E+003  0.10011430E+004  0.10028910E+004  0.10036460E+004  0.10036470E+004  0.10031870E+004  0.10024740E+004  0.10028840E+004  0.10038910E+004  0.10043170E+004  0.10053370E+004  0.10074620E+004  0.10093800E+004  0.10097590E+004  0.10073480E+004  0.10046970E+004  0.10040260E+004  0.10049600E+004  0.10067630E+004  0.10095960E+004  0.10127160E+004  0.10134440E+004
0.10172130E+004  0.10188820E+004  0.10197280E+004  0.10193300E+004  0.10186150E+004  0.10179520E+004  0.10172700E+004  0.10157440E+004  0.10133430E+004  0.10105680E+004  0.10073750E+004  0.10039540E+004  0.10011820E+004  0.10011650E+004  0.10045410E+004  0.10065390E+004  0.10004190E+004  0.99248199E+003  0.98711298E+003  0.98192200E+003  0.97837000E+003  0.97953101E+003  0.98207703E+003  0.98220697E+003  0.98015802E+003  0.97684802E+003  0.97384900E+003  0.97122498E+003  0.96875098E+003  0.96543799E+003  0.96162598E+003  0.95967902E+003  0.96214697E+003  0.96652399E+003  0.97264801E+003  0.97996399E+003  0.98663800E+003  0.98778802E+003  0.98598999E+003  0.99143701E+003  0.99749298E+003  0.99942902E+003  0.10002440E+004  0.10012010E+004  0.10019310E+004  0.10024000E+004  0.10017490E+004  0.10013470E+004  0.10010430E+004  0.10021580E+004  0.10036280E+004  0.10036670E+004  0.10048880E+004  0.10072090E+004  0.10098480E+004  0.10106420E+004  0.10076400E+004  0.10046590E+004  0.10041820E+004  0.10049610E+004  0.10069690E+004  0.10101670E+004  0.10136330E+004  0.10155660E+004
0.10187320E+004  0.10188480E+004  0.10190350E+004  0.10188480E+004  0.10179620E+004  0.10171340E+004  0.10163810E+004  0.10146570E+004  0.10117470E+004  0.10085230E+004  0.10052270E+004  0.10017310E+004  0.10000060E+004  0.10017720E+004  0.10059940E+004  0.10067830E+004  0.10006220E+004  0.99156201E+003  0.98493701E+003  0.97953802E+003  0.97713202E+003  0.97915802E+003  0.98273901E+003  0.98385699E+003  0.98067102E+003  0.97543799E+003  0.97141101E+003  0.96983801E+003  0.96868799E+003  0.96441998E+003  0.95953497E+003  0.95851202E+003  0.96078400E+003  0.96525598E+003  0.97197498E+003  0.98012299E+003  0.98797400E+003  0.99052899E+003  0.99025299E+003  0.99483398E+003  0.99942603E+003  0.10000530E+004  0.99975598E+003  0.10000720E+004  0.10011990E+004  0.10006450E+004  0.99978601E+003  0.99915698E+003  0.99906702E+003  0.10003840E+004  0.10021060E+004  0.10031470E+004  0.10039140E+004  0.10051860E+004  0.10080060E+004  0.10095970E+004  0.10074870E+004  0.10049420E+004  0.10049020E+004  0.10054160E+004  0.10077130E+004  0.10098380E+004  0.10124030E+004  0.10152650E+004
0.10207330E+004  0.10191780E+004  0.10185960E+004  0.10183330E+004  0.10176770E+004  0.10165640E+004  0.10154190E+004  0.10135030E+004  0.10108660E+004  0.10079150E+004  0.10047050E+004  0.10017610E+004  0.10010790E+004  0.10042710E+004  0.10080830E+004  0.10081440E+004  0.10010510E+004  0.99165503E+003  0.98299902E+003  0.97709302E+003  0.97683002E+003  0.97898602E+003  0.98196002E+003  0.98385101E+003  0.98010602E+003  0.97427502E+003  0.97119897E+003  0.97028101E+003  0.96850201E+003  0.96371600E+003  0.95922699E+003  0.95774103E+003  0.95949402E+003  0.96493903E+003  0.97316602E+003  0.98234698E+003  0.98875000E+003  0.99294501E+003  0.99577301E+003  0.99872498E+003  0.10006800E+004  0.99907202E+003  0.99804901E+003  0.99884302E+003  0.99934802E+003  0.99844800E+003  0.99791498E+003  0.99771997E+003  0.99796100E+003  0.99892297E+003  0.10005240E+004  0.10016320E+004  0.10018480E+004  0.10023220E+004  0.10045680E+004  0.10070800E+004  0.10066150E+004  0.10055330E+004  0.10052230E+004  0.10059940E+004  0.10073880E+004  0.10091680E+004  0.10105780E+004  0.10137600E+004
0.10220300E+004  0.10203500E+004  0.10185540E+004  0.10183380E+004  0.10174830E+004  0.10161770E+004  0.10143280E+004  0.10123950E+004  0.10102600E+004  0.10078860E+004  0.10056690E+004  0.10038030E+004  0.10039850E+004  0.10073220E+004  0.10104390E+004  0.10087060E+004  0.10025230E+004  0.99369202E+003  0.98405902E+003  0.97831201E+003  0.97892401E+003  0.98032098E+003  0.98105499E+003  0.98098901E+003  0.97825598E+003  0.97493402E+003  0.97309998E+003  0.97206500E+003  0.96978699E+003  0.96555902E+003  0.96143799E+003  0.95919098E+003  0.96015900E+003  0.96583502E+003  0.97568701E+003  0.98445502E+003  0.99085797E+003  0.99509998E+003  0.99856403E+003  0.10008400E+004  0.10002590E+004  0.99880103E+003  0.99824902E+003  0.99838202E+003  0.99769397E+003  0.99709497E+003  0.99721997E+003  0.99813300E+003  0.99895099E+003  0.99911200E+003  0.99869702E+003  0.99902002E+003  0.99951898E+003  0.10002850E+004  0.10024370E+004  0.10044480E+004  0.10051490E+004  0.10049660E+004  0.10047100E+004  0.10053530E+004  0.10073630E+004  0.10087260E+004  0.10100810E+004  0.10130940E+004
0.10224800E+004  0.10214400E+004  0.10204190E+004  0.10194900E+004  0.10181480E+004  0.10160880E+004  0.10135870E+004  0.10113500E+004  0.10094070E+004  0.10073930E+004  0.10062900E+004  0.10060900E+004  0.10068230E+004  0.10097010E+004  0.10115570E+004  0.10088060E+004  0.10032390E+004  0.99593103E+003  0.98712903E+003  0.98162299E+003  0.98172998E+003  0.98188397E+003  0.97943799E+003  0.97740198E+003  0.97729602E+003  0.97723199E+003  0.97714801E+003  0.97533002E+003  0.97312799E+003  0.96974500E+003  0.96478101E+003  0.96305298E+003  0.96521301E+003  0.97093799E+003  0.98072302E+003  0.98899402E+003  0.99346997E+003  0.99713702E+003  0.10007170E+004  0.10011170E+004  0.99949103E+003  0.99916199E+003  0.99942902E+003  0.99855200E+003  0.99778699E+003  0.99747101E+003  0.99855798E+003  0.10001230E+004  0.10005850E+004  0.99940198E+003  0.99753802E+003  0.99742102E+003  0.99826599E+003  0.99938702E+003  0.10016920E+004  0.10033830E+004  0.10032400E+004  0.10036560E+004  0.10039080E+004  0.10050120E+004  0.10065250E+004  0.10080570E+004  0.10093720E+004  0.10118520E+004
0.10221120E+004  0.10220210E+004  0.10215400E+004  0.10205650E+004  0.10191020E+004  0.10168020E+004  0.10139350E+004  0.10110150E+004  0.10082240E+004  0.10064230E+004  0.10064540E+004  0.10072070E+004  0.10080390E+004  0.10104070E+004  0.10121650E+004  0.10088640E+004  0.10033730E+004  0.99759100E+003  0.99012799E+003  0.98434399E+003  0.98301599E+003  0.98192297E+003  0.97712701E+003  0.97450702E+003  0.97671698E+003  0.97971600E+003  0.98064801E+003  0.97920697E+003  0.97536798E+003  0.97123499E+003  0.96832898E+003  0.96876501E+003  0.97224298E+003  0.97894702E+003  0.98682501E+003  0.99340198E+003  0.99569202E+003  0.99720001E+003  0.99975201E+003  0.10000990E+004  0.99875098E+003  0.99853003E+003  0.99898798E+003  0.99846698E+003  0.99728601E+003  0.99774701E+003  0.99885699E+003  0.99979602E+003  0.99982703E+003  0.99862097E+003  0.99746698E+003  0.99725897E+003  0.99793500E+003  0.99953101E+003  0.10021310E+004  0.10033680E+004  0.10032340E+004  0.10036400E+004  0.10048320E+004  0.10055630E+004  0.10063250E+004  0.10072730E+004  0.10080780E+004  0.10099580E+004
0.10222970E+004  0.10217090E+004  0.10209620E+004  0.10200610E+004  0.10189670E+004  0.10176280E+004  0.10154700E+004  0.10118660E+004  0.10081440E+004  0.10058810E+004  0.10062490E+004  0.10080140E+004  0.10090940E+004  0.10111090E+004  0.10126280E+004  0.10093010E+004  0.10035850E+004  0.99883099E+003  0.99342200E+003  0.98731000E+003  0.98302698E+003  0.98027301E+003  0.97571997E+003  0.97294299E+003  0.97487701E+003  0.97791803E+003  0.98023297E+003  0.98054498E+003  0.97659802E+003  0.97140100E+003  0.97081201E+003  0.97404797E+003  0.97865698E+003  0.98409497E+003  0.98994702E+003  0.99433099E+003  0.99595398E+003  0.99538898E+003  0.99538202E+003  0.99646399E+003  0.99679303E+003  0.99746802E+003  0.99815302E+003  0.99779901E+003  0.99686200E+003  0.99625897E+003  0.99622998E+003  0.99692401E+003  0.99784399E+003  0.99778900E+003  0.99729102E+003  0.99747803E+003  0.99882001E+003  0.10004110E+004  0.10029950E+004  0.10050070E+004  0.10052770E+004  0.10058870E+004  0.10071350E+004  0.10078480E+004  0.10077150E+004  0.10073200E+004  0.10078150E+004  0.10092260E+004
0.10219420E+004  0.10204280E+004  0.10189460E+004  0.10183150E+004  0.10180280E+004  0.10178190E+004  0.10169810E+004  0.10139620E+004  0.10091470E+004  0.10057670E+004  0.10065100E+004  0.10094940E+004  0.10120860E+004  0.10134720E+004  0.10126740E+004  0.10083170E+004  0.10027460E+004  0.99835797E+003  0.99465399E+003  0.98922900E+003  0.98339301E+003  0.97860602E+003  0.97461798E+003  0.97255701E+003  0.97288098E+003  0.97415698E+003  0.97663098E+003  0.97829498E+003  0.97610999E+003  0.97255200E+003  0.97321899E+003  0.97764502E+003  0.98133698E+003  0.98404602E+003  0.98893500E+003  0.99331598E+003  0.99455798E+003  0.99241302E+003  0.99115100E+003  0.99154797E+003  0.99398798E+003  0.99666498E+003  0.99785999E+003  0.99747101E+003  0.99557800E+003  0.99421100E+003  0.99379401E+003  0.99527002E+003  0.99723102E+003  0.99779401E+003  0.99787097E+003  0.99858398E+003  0.99983899E+003  0.10017380E+004  0.10035940E+004  0.10057720E+004  0.10075860E+004  0.10088300E+004  0.10097640E+004  0.10098470E+004  0.10082980E+004  0.10074150E+004  0.10075980E+004  0.10093490E+004
0.10207040E+004  0.10187730E+004  0.10168670E+004  0.10164440E+004  0.10171530E+004  0.10181820E+004  0.10183400E+004  0.10162720E+004  0.10111260E+004  0.10065210E+004  0.10072220E+004  0.10118450E+004  0.10155970E+004  0.10159200E+004  0.10118770E+004  0.10069600E+004  0.10013960E+004  0.99698297E+003  0.99366803E+003  0.98920502E+003  0.98317499E+003  0.97765997E+003  0.97366699E+003  0.97116498E+003  0.97063000E+003  0.97109601E+003  0.97308600E+003  0.97472198E+003  0.97431702E+003  0.97396899E+003  0.97582501E+003  0.97861401E+003  0.97903601E+003  0.98185901E+003  0.98682599E+003  0.99100897E+003  0.99183801E+003  0.99013397E+003  0.98908801E+003  0.98964600E+003  0.99146600E+003  0.99486700E+003  0.99644702E+003  0.99509100E+003  0.99338300E+003  0.99226202E+003  0.99310602E+003  0.99563300E+003  0.99747900E+003  0.99836603E+003  0.99961798E+003  0.10009780E+004  0.10024430E+004  0.10041720E+004  0.10047040E+004  0.10053200E+004  0.10082130E+004  0.10096860E+004  0.10105320E+004  0.10098560E+004  0.10079740E+004  0.10069380E+004  0.10073140E+004  0.10091370E+004
0.10201590E+004  0.10181360E+004  0.10161300E+004  0.10155980E+004  0.10173320E+004  0.10190910E+004  0.10195430E+004  0.10191480E+004  0.10149060E+004  0.10096900E+004  0.10100920E+004  0.10150830E+004  0.10182880E+004  0.10158770E+004  0.10098850E+004  0.10045490E+004  0.10005750E+004  0.99643500E+003  0.99246997E+003  0.98761102E+003  0.98139301E+003  0.97558398E+003  0.97126202E+003  0.96846997E+003  0.96806403E+003  0.96862201E+003  0.97049902E+003  0.97116302E+003  0.97228400E+003  0.97542401E+003  0.97727301E+003  0.97735699E+003  0.97727002E+003  0.98006201E+003  0.98516400E+003  0.98941302E+003  0.99036798E+003  0.99028601E+003  0.99023199E+003  0.99048798E+003  0.99088599E+003  0.99279901E+003  0.99439203E+003  0.99291901E+003  0.99121002E+003  0.99103900E+003  0.99337701E+003  0.99581702E+003  0.99742603E+003  0.99804602E+003  0.99891199E+003  0.10014950E+004  0.10047350E+004  0.10069590E+004  0.10067120E+004  0.10065720E+004  0.10076310E+004  0.10093700E+004  0.10092190E+004  0.10089300E+004  0.10083610E+004  0.10077380E+004  0.10078940E+004  0.10097090E+004
0.10204000E+004  0.10181300E+004  0.10158440E+004  0.10157740E+004  0.10179550E+004  0.10203860E+004  0.10216000E+004  0.10219030E+004  0.10196660E+004  0.10153770E+004  0.10149130E+004  0.10185760E+004  0.10196910E+004  0.10141730E+004  0.10070550E+004  0.10016590E+004  0.99871100E+003  0.99609802E+003  0.99217297E+003  0.98642102E+003  0.97965198E+003  0.97328400E+003  0.96854901E+003  0.96676801E+003  0.96626898E+003  0.96759802E+003  0.96987201E+003  0.96988702E+003  0.97090900E+003  0.97545599E+003  0.97850201E+003  0.97774200E+003  0.97726398E+003  0.97984003E+003  0.98557599E+003  0.98902301E+003  0.99033801E+003  0.99128802E+003  0.99135199E+003  0.99171899E+003  0.99208398E+003  0.99215601E+003  0.99322198E+003  0.99262402E+003  0.99134003E+003  0.99193298E+003  0.99372101E+003  0.99588599E+003  0.99733301E+003  0.99681000E+003  0.99613202E+003  0.99786200E+003  0.10020480E+004  0.10056010E+004  0.10065430E+004  0.10069990E+004  0.10075750E+004  0.10083160E+004  0.10094210E+004  0.10099760E+004  0.10103450E+004  0.10096580E+004  0.10090780E+004  0.10111280E+004
0.10203340E+004  0.10176920E+004  0.10154170E+004  0.10157060E+004  0.10189250E+004  0.10225770E+004  0.10236630E+004  0.10228800E+004  0.10216080E+004  0.10189650E+004  0.10180700E+004  0.10185340E+004  0.10161760E+004  0.10101060E+004  0.10041750E+004  0.10007310E+004  0.99775299E+003  0.99558398E+003  0.99272900E+003  0.98682397E+003  0.97897803E+003  0.97286200E+003  0.96787299E+003  0.96526801E+003  0.96609302E+003  0.96859399E+003  0.97056000E+003  0.97097699E+003  0.97164600E+003  0.97529700E+003  0.97903003E+003  0.97994397E+003  0.97898700E+003  0.98192700E+003  0.98763098E+003  0.99041498E+003  0.99007397E+003  0.99009601E+003  0.99057202E+003  0.99187097E+003  0.99233698E+003  0.99271503E+003  0.99372998E+003  0.99405701E+003  0.99330298E+003  0.99314203E+003  0.99424103E+003  0.99581201E+003  0.99710797E+003  0.99587598E+003  0.99350299E+003  0.99324799E+003  0.99583899E+003  0.99998102E+003  0.10037380E+004  0.10061520E+004  0.10077200E+004  0.10089770E+004  0.10104630E+004  0.10126800E+004  0.10133400E+004  0.10119030E+004  0.10109230E+004  0.10132820E+004
0.10199730E+004  0.10166990E+004  0.10143250E+004  0.10154530E+004  0.10194880E+004  0.10230550E+004  0.10231650E+004  0.10217510E+004  0.10201860E+004  0.10181620E+004  0.10162100E+004  0.10149000E+004  0.10104900E+004  0.10052350E+004  0.10019240E+004  0.10002520E+004  0.99846997E+003  0.99611298E+003  0.99310498E+003  0.98739001E+003  0.98044397E+003  0.97310901E+003  0.96811298E+003  0.96539203E+003  0.96597900E+003  0.96869299E+003  0.97122699E+003  0.97285602E+003  0.97430902E+003  0.97615503E+003  0.97892297E+003  0.98161499E+003  0.98208301E+003  0.98464203E+003  0.98955603E+003  0.99047400E+003  0.98858899E+003  0.98747198E+003  0.98871002E+003  0.99056799E+003  0.99317297E+003  0.99531403E+003  0.99628003E+003  0.99571600E+003  0.99433502E+003  0.99402802E+003  0.99430798E+003  0.99492102E+003  0.99516998E+003  0.99361700E+003  0.99104901E+003  0.98945801E+003  0.99045801E+003  0.99433899E+003  0.10002830E+004  0.10058970E+004  0.10089140E+004  0.10105180E+004  0.10129500E+004  0.10154660E+004  0.10167990E+004  0.10150360E+004  0.10138130E+004  0.10156520E+004
0.10192520E+004  0.10155800E+004  0.10131540E+004  0.10148810E+004  0.10185730E+004  0.10205420E+004  0.10206180E+004  0.10196870E+004  0.10177910E+004  0.10155220E+004  0.10137450E+004  0.10115570E+004  0.10080380E+004  0.10036770E+004  0.10007310E+004  0.99991998E+003  0.99899597E+003  0.99705902E+003  0.99308600E+003  0.98859399E+003  0.98189301E+003  0.97508698E+003  0.96947803E+003  0.96656201E+003  0.96666101E+003  0.96823499E+003  0.97128497E+003  0.97346503E+003  0.97553601E+003  0.97759302E+003  0.98042401E+003  0.98420001E+003  0.98497699E+003  0.98598297E+003  0.98841302E+003  0.98784998E+003  0.98629199E+003  0.98540302E+003  0.98635101E+003  0.99003302E+003  0.99454602E+003  0.99808899E+003  0.10003860E+004  0.99957202E+003  0.99537299E+003  0.99343597E+003  0.99339203E+003  0.99267297E+003  0.99160303E+003  0.99005298E+003  0.98790900E+003  0.98661603E+003  0.98753198E+003  0.99112500E+003  0.99757599E+003  0.10054720E+004  0.10103830E+004  0.10133310E+004  0.10160850E+004  0.10189080E+004  0.10202890E+004  0.10189170E+004  0.10173730E+004  0.10177290E+004
0.10193640E+004  0.10165770E+004  0.10145690E+004  0.10154470E+004  0.10168300E+004  0.10176610E+004  0.10180340E+004  0.10174570E+004  0.10156030E+004  0.10137130E+004  0.10125960E+004  0.10108690E+004  0.10070390E+004  0.10029810E+004  0.10007840E+004  0.10000460E+004  0.99938300E+003  0.99698499E+003  0.99390698E+003  0.98973401E+003  0.98426501E+003  0.97777698E+003  0.97212799E+003  0.96811200E+003  0.96695599E+003  0.96805603E+003  0.97061499E+003  0.97350098E+003  0.97616998E+003  0.97871002E+003  0.98229498E+003  0.98604901E+003  0.98692902E+003  0.98631702E+003  0.98535199E+003  0.98472900E+003  0.98444702E+003  0.98339697E+003  0.98445203E+003  0.98982800E+003  0.99463501E+003  0.99879797E+003  0.10027460E+004  0.10032940E+004  0.99744397E+003  0.99222302E+003  0.99076501E+003  0.98915802E+003  0.98824701E+003  0.98697900E+003  0.98539301E+003  0.98490802E+003  0.98634698E+003  0.98995599E+003  0.99654102E+003  0.10049090E+004  0.10125360E+004  0.10167060E+004  0.10185240E+004  0.10209930E+004  0.10223460E+004  0.10216720E+004  0.10200380E+004  0.10190270E+004
0.10199290E+004  0.10188000E+004  0.10171280E+004  0.10160920E+004  0.10155920E+004  0.10147070E+004  0.10148070E+004  0.10149720E+004  0.10137180E+004  0.10120770E+004  0.10116290E+004  0.10103230E+004  0.10060540E+004  0.10014100E+004  0.10004410E+004  0.10008460E+004  0.99970697E+003  0.99775598E+003  0.99528998E+003  0.99212903E+003  0.98743298E+003  0.98174597E+003  0.97484698E+003  0.96999701E+003  0.96757300E+003  0.96762402E+003  0.97080103E+003  0.97536298E+003  0.97674500E+003  0.97790002E+003  0.98171198E+003  0.98659198E+003  0.98889301E+003  0.98722198E+003  0.98398499E+003  0.98197998E+003  0.98247302E+003  0.98145203E+003  0.98146698E+003  0.98699597E+003  0.99423199E+003  0.99932501E+003  0.10038500E+004  0.10048390E+004  0.99990302E+003  0.99251703E+003  0.98835901E+003  0.98703601E+003  0.98651001E+003  0.98586102E+003  0.98470001E+003  0.98535101E+003  0.98713702E+003  0.99054303E+003  0.99681598E+003  0.10052580E+004  0.10134360E+004  0.10183930E+004  0.10201080E+004  0.10210390E+004  0.10221220E+004  0.10213950E+004  0.10202680E+004  0.10194530E+004
0.10181630E+004  0.10178950E+004  0.10162360E+004  0.10143960E+004  0.10130130E+004  0.10115230E+004  0.10107140E+004  0.10112480E+004  0.10108380E+004  0.10091640E+004  0.10094160E+004  0.10091860E+004  0.10048620E+004  0.99995898E+003  0.99863202E+003  0.10002750E+004  0.10010380E+004  0.99953998E+003  0.99708099E+003  0.99396997E+003  0.99051703E+003  0.98512402E+003  0.97842902E+003  0.97292200E+003  0.97048499E+003  0.96977100E+003  0.97372601E+003  0.97827502E+003  0.97864502E+003  0.97840100E+003  0.98273401E+003  0.98869598E+003  0.99095398E+003  0.98919397E+003  0.98450201E+003  0.98173901E+003  0.98273999E+003  0.98102301E+003  0.97966803E+003  0.98427100E+003  0.99344897E+003  0.10008780E+004  0.10044420E+004  0.10061330E+004  0.10031780E+004  0.99547998E+003  0.99020398E+003  0.98860303E+003  0.98771301E+003  0.98667499E+003  0.98652301E+003  0.98805103E+003  0.99050201E+003  0.99355499E+003  0.99890997E+003  0.10065050E+004  0.10135290E+004  0.10179140E+004  0.10202360E+004  0.10210090E+004  0.10203490E+004  0.10200170E+004  0.10199450E+004  0.10202350E+004
0.10149740E+004  0.10146810E+004  0.10129790E+004  0.10115030E+004  0.10099670E+004  0.10077480E+004  0.10072680E+004  0.10080590E+004  0.10071290E+004  0.10061070E+004  0.10069980E+004  0.10072350E+004  0.10041540E+004  0.99915399E+003  0.99683002E+003  0.99904999E+003  0.10010300E+004  0.10006490E+004  0.99840997E+003  0.99555798E+003  0.99192200E+003  0.98728998E+003  0.98243103E+003  0.97778802E+003  0.97500299E+003  0.97388397E+003  0.97675800E+003  0.98295599E+003  0.98356702E+003  0.98290601E+003  0.98613098E+003  0.99248700E+003  0.99427002E+003  0.99100800E+003  0.98617102E+003  0.98528497E+003  0.98634900E+003  0.98432202E+003  0.98129303E+003  0.98419501E+003  0.99141803E+003  0.99894202E+003  0.10026010E+004  0.10058210E+004  0.10068210E+004  0.10015110E+004  0.99628998E+003  0.99382599E+003  0.99162799E+003  0.99025098E+003  0.99087500E+003  0.99304999E+003  0.99570099E+003  0.99885602E+003  0.10038570E+004  0.10097430E+004  0.10144150E+004  0.10164160E+004  0.10181520E+004  0.10199800E+004  0.10199440E+004  0.10203080E+004  0.10209820E+004  0.10214060E+004
0.10126300E+004  0.10120330E+004  0.10109610E+004  0.10097930E+004  0.10078280E+004  0.10055630E+004  0.10050780E+004  0.10059810E+004  0.10051810E+004  0.10044860E+004  0.10045430E+004  0.10046660E+004  0.10033570E+004  0.99927399E+003  0.99690002E+003  0.99811603E+003  0.10001540E+004  0.10003800E+004  0.99884998E+003  0.99657501E+003  0.99394800E+003  0.99050598E+003  0.98645398E+003  0.98337903E+003  0.97949902E+003  0.97691101E+003  0.98014600E+003  0.98660303E+003  0.98810699E+003  0.98746002E+003  0.99132001E+003  0.99664398E+003  0.99678101E+003  0.99141602E+003  0.98915399E+003  0.99088898E+003  0.99140100E+003  0.98741602E+003  0.98377399E+003  0.98466400E+003  0.98893799E+003  0.99483398E+003  0.99997400E+003  0.10050630E+004  0.10100770E+004  0.10086170E+004  0.10044230E+004  0.10014870E+004  0.99805902E+003  0.99671399E+003  0.99788098E+003  0.10003600E+004  0.10031120E+004  0.10068280E+004  0.10114770E+004  0.10157730E+004  0.10175310E+004  0.10164340E+004  0.10160800E+004  0.10190730E+004  0.10213240E+004  0.10208700E+004  0.10218040E+004  0.10218300E+004
0.10113130E+004  0.10115170E+004  0.10112140E+004  0.10096730E+004  0.10074250E+004  0.10044940E+004  0.10033410E+004  0.10034220E+004  0.10030080E+004  0.10028020E+004  0.10030150E+004  0.10032800E+004  0.10019880E+004  0.99842603E+003  0.99691199E+003  0.99858698E+003  0.99952802E+003  0.99899200E+003  0.99806000E+003  0.99716302E+003  0.99645203E+003  0.99405701E+003  0.99072601E+003  0.98692700E+003  0.98239899E+003  0.98014099E+003  0.98445599E+003  0.98991302E+003  0.99041400E+003  0.99031403E+003  0.99408698E+003  0.99818701E+003  0.99732898E+003  0.99103302E+003  0.98993903E+003  0.99471802E+003  0.99496600E+003  0.99098199E+003  0.98747101E+003  0.98606799E+003  0.98781799E+003  0.99333099E+003  0.99897101E+003  0.10060180E+004  0.10137760E+004  0.10150950E+004  0.10124950E+004  0.10096220E+004  0.10061740E+004  0.10047080E+004  0.10066060E+004  0.10093030E+004  0.10125860E+004  0.10170870E+004  0.10214950E+004  0.10245880E+004  0.10248110E+004  0.10213290E+004  0.10181810E+004  0.10201030E+004  0.10220820E+004  0.10211620E+004  0.10204490E+004  0.10211680E+004
0.10101900E+004  0.10113110E+004  0.10110850E+004  0.10094470E+004  0.10070050E+004  0.10036700E+004  0.10009290E+004  0.10003120E+004  0.10001420E+004  0.99961798E+003  0.10011870E+004  0.10024470E+004  0.10010580E+004  0.99847900E+003  0.99753003E+003  0.99825201E+003  0.99826599E+003  0.99701898E+003  0.99604797E+003  0.99655701E+003  0.99736102E+003  0.99610101E+003  0.99293597E+003  0.98840900E+003  0.98404303E+003  0.98348798E+003  0.98785101E+003  0.99116199E+003  0.99117499E+003  0.99163599E+003  0.99409802E+003  0.99719299E+003  0.99664801E+003  0.99205298E+003  0.99049298E+003  0.99347302E+003  0.99605701E+003  0.99466699E+003  0.99384302E+003  0.99145001E+003  0.99170001E+003  0.99468799E+003  0.99953198E+003  0.10075620E+004  0.10167960E+004  0.10202990E+004  0.10191900E+004  0.10165880E+004  0.10132840E+004  0.10126650E+004  0.10152370E+004  0.10187960E+004  0.10231340E+004  0.10278870E+004  0.10315811E+004  0.10338850E+004  0.10338101E+004  0.10297960E+004  0.10250000E+004  0.10232990E+004  0.10228110E+004  0.10206610E+004  0.10202030E+004  0.10212320E+004
0.10093790E+004  0.10105970E+004  0.10096570E+004  0.10071000E+004  0.10044530E+004  0.10011570E+004  0.99858801E+003  0.99737598E+003  0.99601801E+003  0.99553802E+003  0.99647601E+003  0.99812402E+003  0.99830298E+003  0.99734900E+003  0.99668500E+003  0.99657300E+003  0.99628802E+003  0.99549701E+003  0.99503998E+003  0.99563397E+003  0.99618298E+003  0.99531500E+003  0.99207898E+003  0.98803601E+003  0.98554498E+003  0.98633398E+003  0.98880603E+003  0.98982300E+003  0.98956702E+003  0.99151801E+003  0.99512701E+003  0.99852698E+003  0.99930402E+003  0.99525500E+003  0.99242401E+003  0.99492499E+003  0.99563800E+003  0.99759998E+003  0.99932397E+003  0.10000120E+004  0.99925500E+003  0.99945203E+003  0.10010430E+004  0.10084100E+004  0.10183850E+004  0.10240439E+004  0.10241610E+004  0.10215180E+004  0.10191200E+004  0.10199580E+004  0.10239680E+004  0.10280439E+004  0.10327791E+004  0.10364640E+004  0.10382830E+004  0.10394630E+004  0.10393571E+004  0.10367430E+004  0.10317040E+004  0.10266200E+004  0.10231840E+004  0.10213980E+004  0.10212400E+004  0.10219100E+004
0.10082610E+004  0.10083240E+004  0.10058450E+004  0.10034520E+004  0.10010680E+004  0.99751801E+003  0.99553699E+003  0.99387903E+003  0.99153101E+003  0.99005298E+003  0.98984900E+003  0.99122998E+003  0.99258600E+003  0.99250000E+003  0.99161700E+003  0.99216400E+003  0.99367999E+003  0.99366699E+003  0.99370801E+003  0.99440399E+003  0.99476501E+003  0.99344800E+003  0.99042700E+003  0.98719800E+003  0.98598798E+003  0.98775403E+003  0.98877502E+003  0.98724701E+003  0.98735901E+003  0.99062598E+003  0.99539600E+003  0.99914801E+003  0.10004010E+004  0.99753699E+003  0.99565100E+003  0.99776202E+003  0.99868201E+003  0.99907599E+003  0.10026300E+004  0.10061770E+004  0.10065800E+004  0.10047450E+004  0.10047190E+004  0.10098770E+004  0.10180250E+004  0.10242371E+004  0.10259540E+004  0.10255870E+004  0.10249740E+004  0.10268571E+004  0.10308290E+004  0.10348540E+004  0.10379020E+004  0.10398660E+004  0.10403800E+004  0.10408690E+004  0.10412200E+004  0.10394220E+004  0.10341121E+004  0.10286670E+004  0.10245630E+004  0.10225500E+004  0.10216230E+004  0.10217850E+004
0.10042450E+004  0.10038780E+004  0.10017800E+004  0.99932703E+003  0.99760999E+003  0.99500800E+003  0.99225403E+003  0.99017401E+003  0.98718500E+003  0.98434802E+003  0.98431299E+003  0.98577502E+003  0.98674103E+003  0.98630499E+003  0.98513800E+003  0.98591302E+003  0.98843402E+003  0.98968402E+003  0.99032501E+003  0.99207898E+003  0.99360699E+003  0.99331500E+003  0.99016699E+003  0.98677002E+003  0.98562402E+003  0.98680701E+003  0.98750500E+003  0.98548602E+003  0.98532001E+003  0.98904401E+003  0.99313202E+003  0.99498798E+003  0.99514099E+003  0.99411401E+003  0.99548297E+003  0.99872803E+003  0.10003650E+004  0.10010440E+004  0.10024480E+004  0.10075550E+004  0.10110580E+004  0.10096500E+004  0.10083850E+004  0.10104150E+004  0.10154000E+004  0.10209470E+004  0.10254139E+004  0.10278070E+004  0.10297340E+004  0.10315430E+004  0.10338590E+004  0.10365861E+004  0.10384200E+004  0.10394540E+004  0.10393000E+004  0.10397750E+004  0.10404740E+004  0.10387550E+004  0.10347770E+004  0.10303929E+004  0.10277640E+004  0.10249810E+004  0.10226380E+004  0.10221330E+004
0.99992499E+003  0.99983301E+003  0.99827802E+003  0.99619397E+003  0.99434900E+003  0.99188098E+003  0.98976703E+003  0.98715900E+003  0.98357501E+003  0.98168500E+003  0.98095697E+003  0.98169098E+003  0.98232898E+003  0.98163202E+003  0.98011401E+003  0.98053302E+003  0.98288397E+003  0.98504797E+003  0.98706598E+003  0.99015900E+003  0.99352399E+003  0.99365100E+003  0.99054303E+003  0.98687500E+003  0.98542200E+003  0.98568597E+003  0.98482800E+003  0.98352399E+003  0.98449402E+003  0.98807898E+003  0.99027399E+003  0.99110699E+003  0.99203699E+003  0.99237903E+003  0.99374200E+003  0.99732599E+003  0.10004160E+004  0.10010460E+004  0.10018920E+004  0.10077230E+004  0.10147450E+004  0.10142820E+004  0.10102360E+004  0.10102490E+004  0.10127800E+004  0.10177930E+004  0.10237730E+004  0.10286429E+004  0.10320020E+004  0.10334420E+004  0.10353290E+004  0.10375170E+004  0.10388621E+004  0.10385680E+004  0.10381530E+004  0.10386660E+004  0.10385120E+004  0.10365320E+004  0.10339130E+004  0.10314440E+004  0.10296030E+004  0.10271021E+004  0.10249740E+004  0.10250900E+004
0.99717499E+003  0.99656097E+003  0.99536200E+003  0.99339801E+003  0.99069897E+003  0.98856201E+003  0.98758002E+003  0.98546698E+003  0.98290601E+003  0.98036298E+003  0.97953998E+003  0.98010498E+003  0.98014099E+003  0.97884198E+003  0.97698602E+003  0.97732800E+003  0.97978699E+003  0.98278003E+003  0.98579303E+003  0.98906097E+003  0.99177502E+003  0.99195801E+003  0.98963098E+003  0.98697101E+003  0.98541602E+003  0.98500598E+003  0.98344202E+003  0.98288702E+003  0.98527899E+003  0.98770099E+003  0.99006403E+003  0.99323901E+003  0.99662201E+003  0.99603101E+003  0.99429401E+003  0.99771997E+003  0.99926099E+003  0.99945001E+003  0.10011730E+004  0.10079650E+004  0.10183420E+004  0.10170910E+004  0.10112920E+004  0.10104690E+004  0.10121360E+004  0.10159270E+004  0.10217690E+004  0.10286210E+004  0.10328640E+004  0.10344771E+004  0.10357209E+004  0.10382600E+004  0.10399860E+004  0.10392460E+004  0.10378300E+004  0.10376090E+004  0.10365360E+004  0.10345840E+004  0.10330460E+004  0.10318190E+004  0.10302180E+004  0.10274080E+004  0.10259990E+004  0.10278340E+004
0.99423199E+003  0.99358197E+003  0.99282098E+003  0.99093201E+003  0.98790802E+003  0.98574500E+003  0.98452502E+003  0.98423700E+003  0.98238898E+003  0.97973401E+003  0.97853699E+003  0.97891602E+003  0.97867603E+003  0.97629797E+003  0.97480298E+003  0.97547803E+003  0.97837701E+003  0.98213098E+003  0.98532397E+003  0.98775201E+003  0.98881799E+003  0.98869098E+003  0.98786200E+003  0.98654102E+003  0.98510303E+003  0.98460199E+003  0.98458502E+003  0.98566302E+003  0.98786603E+003  0.99003003E+003  0.99315302E+003  0.99845203E+003  0.10009830E+004  0.99866901E+003  0.99671301E+003  0.99823798E+003  0.99792401E+003  0.99724298E+003  0.99976001E+003  0.10060880E+004  0.10147460E+004  0.10126830E+004  0.10087450E+004  0.10092890E+004  0.10114490E+004  0.10149740E+004  0.10206030E+004  0.10271880E+004  0.10323400E+004  0.10341230E+004  0.10345050E+004  0.10362720E+004  0.10392490E+004  0.10390649E+004  0.10368510E+004  0.10362700E+004  0.10354180E+004  0.10345031E+004  0.10343380E+004  0.10335100E+004  0.10311130E+004  0.10274410E+004  0.10254740E+004  0.10280710E+004
0.99118903E+003  0.99126099E+003  0.99108398E+003  0.98869702E+003  0.98506201E+003  0.98272302E+003  0.98228101E+003  0.98169299E+003  0.98044702E+003  0.97920099E+003  0.97822498E+003  0.97760602E+003  0.97590002E+003  0.97371301E+003  0.97376398E+003  0.97481702E+003  0.97812701E+003  0.98322302E+003  0.98567603E+003  0.98733801E+003  0.98739502E+003  0.98739600E+003  0.98789600E+003  0.98691602E+003  0.98507800E+003  0.98484198E+003  0.98766803E+003  0.99065997E+003  0.99235400E+003  0.99313501E+003  0.99603003E+003  0.99945801E+003  0.10007660E+004  0.99849902E+003  0.99806702E+003  0.99913702E+003  0.99777002E+003  0.99662402E+003  0.99900897E+003  0.10036630E+004  0.10063560E+004  0.10047900E+004  0.10044120E+004  0.10069890E+004  0.10105790E+004  0.10143440E+004  0.10188580E+004  0.10246050E+004  0.10298430E+004  0.10315470E+004  0.10319160E+004  0.10336740E+004  0.10360780E+004  0.10374150E+004  0.10372570E+004  0.10366260E+004  0.10355070E+004  0.10351990E+004  0.10350660E+004  0.10343101E+004  0.10316620E+004  0.10269510E+004  0.10246851E+004  0.10255220E+004
0.98897498E+003  0.98968701E+003  0.98922803E+003  0.98652399E+003  0.98273401E+003  0.98014697E+003  0.97957098E+003  0.97931897E+003  0.97858002E+003  0.97795398E+003  0.97851898E+003  0.97797198E+003  0.97531897E+003  0.97424500E+003  0.97531097E+003  0.97730298E+003  0.98059100E+003  0.98541400E+003  0.98798102E+003  0.98773401E+003  0.98789398E+003  0.98896899E+003  0.98966901E+003  0.98832501E+003  0.98631097E+003  0.98758002E+003  0.99199402E+003  0.99473499E+003  0.99480200E+003  0.99435498E+003  0.99538599E+003  0.99661902E+003  0.99585199E+003  0.99697803E+003  0.99784900E+003  0.99883002E+003  0.99913000E+003  0.99813599E+003  0.99981897E+003  0.10041950E+004  0.10043510E+004  0.10028840E+004  0.10044090E+004  0.10075010E+004  0.10103310E+004  0.10133980E+004  0.10173380E+004  0.10213270E+004  0.10247350E+004  0.10269449E+004  0.10281639E+004  0.10305280E+004  0.10330179E+004  0.10355800E+004  0.10375660E+004  0.10370740E+004  0.10358740E+004  0.10342321E+004  0.10339070E+004  0.10334410E+004  0.10305240E+004  0.10268190E+004  0.10245649E+004  0.10259790E+004
0.98711902E+003  0.98744501E+003  0.98695203E+003  0.98388000E+003  0.98080798E+003  0.97889398E+003  0.97790002E+003  0.97798999E+003  0.97818903E+003  0.97812201E+003  0.97842700E+003  0.97794098E+003  0.97650500E+003  0.97707898E+003  0.97902197E+003  0.98227502E+003  0.98592603E+003  0.98929199E+003  0.99081403E+003  0.99000403E+003  0.98992200E+003  0.99093402E+003  0.99132599E+003  0.98945898E+003  0.98825800E+003  0.99110797E+003  0.99519501E+003  0.99666302E+003  0.99507703E+003  0.99291302E+003  0.99131403E+003  0.99039001E+003  0.99130298E+003  0.99356702E+003  0.99577197E+003  0.99786200E+003  0.99982898E+003  0.10009980E+004  0.10024130E+004  0.10061050E+004  0.10078420E+004  0.10077610E+004  0.10084410E+004  0.10100040E+004  0.10125920E+004  0.10145130E+004  0.10171380E+004  0.10196850E+004  0.10207400E+004  0.10220700E+004  0.10249990E+004  0.10279611E+004  0.10306270E+004  0.10325439E+004  0.10348940E+004  0.10354940E+004  0.10339730E+004  0.10324990E+004  0.10320620E+004  0.10319410E+004  0.10299330E+004  0.10282679E+004  0.10275400E+004  0.10289630E+004
0.98685199E+003  0.98676099E+003  0.98509399E+003  0.98255103E+003  0.98037097E+003  0.97914600E+003  0.97876300E+003  0.97865302E+003  0.97881097E+003  0.97897498E+003  0.97966101E+003  0.97905701E+003  0.97837500E+003  0.97990900E+003  0.98363898E+003  0.98818201E+003  0.99208600E+003  0.99479797E+003  0.99498297E+003  0.99322699E+003  0.99253497E+003  0.99272699E+003  0.99233801E+003  0.99040698E+003  0.98958301E+003  0.99271698E+003  0.99716400E+003  0.99726599E+003  0.99489502E+003  0.99142999E+003  0.98859497E+003  0.98828802E+003  0.99012201E+003  0.99218298E+003  0.99304498E+003  0.99689398E+003  0.10017930E+004  0.10031910E+004  0.10049410E+004  0.10084170E+004  0.10123800E+004  0.10132920E+004  0.10118840E+004  0.10131300E+004  0.10146190E+004  0.10165790E+004  0.10191260E+004  0.10209110E+004  0.10198730E+004  0.10203980E+004  0.10224700E+004  0.10251960E+004  0.10273090E+004  0.10285070E+004  0.10298420E+004  0.10312780E+004  0.10311890E+004  0.10300010E+004  0.10292700E+004  0.10295160E+004  0.10298820E+004  0.10292980E+004  0.10288361E+004  0.10307040E+004
0.98957898E+003  0.98834302E+003  0.98687500E+003  0.98473999E+003  0.98300702E+003  0.98198700E+003  0.98022101E+003  0.97964502E+003  0.97966498E+003  0.98074200E+003  0.98280200E+003  0.98331500E+003  0.98249902E+003  0.98432599E+003  0.98904901E+003  0.99373602E+003  0.99773999E+003  0.10000180E+004  0.99974597E+003  0.99786499E+003  0.99579901E+003  0.99484100E+003  0.99304999E+003  0.99150201E+003  0.99191998E+003  0.99483502E+003  0.99862500E+003  0.99949500E+003  0.99730103E+003  0.99519299E+003  0.99262402E+003  0.99245203E+003  0.99405103E+003  0.99391901E+003  0.99376801E+003  0.99776501E+003  0.10023910E+004  0.10042760E+004  0.10074210E+004  0.10127110E+004  0.10165090E+004  0.10162690E+004  0.10142740E+004  0.10142500E+004  0.10151740E+004  0.10166080E+004  0.10204640E+004  0.10224200E+004  0.10206780E+004  0.10199850E+004  0.10203050E+004  0.10210620E+004  0.10225830E+004  0.10237110E+004  0.10243000E+004  0.10260200E+004  0.10273610E+004  0.10269690E+004  0.10265031E+004  0.10269480E+004  0.10276700E+004  0.10269150E+004  0.10274430E+004  0.10291851E+004
0.99221399E+003  0.99186102E+003  0.99026202E+003  0.98875500E+003  0.98674701E+003  0.98436902E+003  0.98252899E+003  0.98105798E+003  0.98150201E+003  0.98408197E+003  0.98710699E+003  0.98780603E+003  0.98789600E+003  0.98973401E+003  0.99378003E+003  0.99798999E+003  0.10018290E+004  0.10039630E+004  0.10033210E+004  0.10010460E+004  0.99949200E+003  0.99734003E+003  0.99449298E+003  0.99288397E+003  0.99458002E+003  0.99847601E+003  0.10021220E+004  0.10037360E+004  0.10034930E+004  0.10022560E+004  0.10007440E+004  0.99964801E+003  0.99985999E+003  0.99912000E+003  0.99737701E+003  0.99833398E+003  0.10015100E+004  0.10046970E+004  0.10107560E+004  0.10168020E+004  0.10188510E+004  0.10173010E+004  0.10146920E+004  0.10137620E+004  0.10142440E+004  0.10156610E+004  0.10205020E+004  0.10228320E+004  0.10210070E+004  0.10191260E+004  0.10178800E+004  0.10166390E+004  0.10178700E+004  0.10190130E+004  0.10199470E+004  0.10214800E+004  0.10232560E+004  0.10246851E+004  0.10248540E+004  0.10251169E+004  0.10237570E+004  0.10236230E+004  0.10247710E+004  0.10258910E+004
0.99472302E+003  0.99422498E+003  0.99243903E+003  0.99047900E+003  0.98809302E+003  0.98661798E+003  0.98510498E+003  0.98369897E+003  0.98438202E+003  0.98765198E+003  0.99051703E+003  0.99191803E+003  0.99236200E+003  0.99462598E+003  0.99775201E+003  0.10004720E+004  0.10042970E+004  0.10066030E+004  0.10056420E+004  0.10028370E+004  0.10004870E+004  0.99876703E+003  0.99721503E+003  0.99650500E+003  0.99780798E+003  0.10025300E+004  0.10068140E+004  0.10090060E+004  0.10098730E+004  0.10094350E+004  0.10077060E+004  0.10059450E+004  0.10052790E+004  0.10037490E+004  0.10005370E+004  0.99904199E+003  0.99945099E+003  0.10044870E+004  0.10126260E+004  0.10184490E+004  0.10195450E+004  0.10168930E+004  0.10123800E+004  0.10115080E+004  0.10124980E+004  0.10159470E+004  0.10210860E+004  0.10220290E+004  0.10196410E+004  0.10170600E+004  0.10145640E+004  0.10131010E+004  0.10141960E+004  0.10157400E+004  0.10164450E+004  0.10180160E+004  0.10204590E+004  0.10226180E+004  0.10241750E+004  0.10240229E+004  0.10221960E+004  0.10211470E+004  0.10214090E+004  0.10221400E+004
0.99634198E+003  0.99551099E+003  0.99357599E+003  0.99011798E+003  0.98832001E+003  0.98808801E+003  0.98712500E+003  0.98642499E+003  0.98809900E+003  0.99109399E+003  0.99376398E+003  0.99547998E+003  0.99688300E+003  0.99968201E+003  0.10014850E+004  0.10032420E+004  0.10061170E+004  0.10081860E+004  0.10077630E+004  0.10050860E+004  0.10023130E+004  0.10008660E+004  0.10006300E+004  0.10010790E+004  0.10022390E+004  0.10050360E+004  0.10095550E+004  0.10132520E+004  0.10144860E+004  0.10135060E+004  0.10121890E+004  0.10103370E+004  0.10082570E+004  0.10043560E+004  0.10005130E+004  0.99874402E+003  0.99863702E+003  0.10035300E+004  0.10112320E+004  0.10166460E+004  0.10189240E+004  0.10165730E+004  0.10107870E+004  0.10085530E+004  0.10108190E+004  0.10163550E+004  0.10210910E+004  0.10209830E+004  0.10177170E+004  0.10138430E+004  0.10107050E+004  0.10092550E+004  0.10108380E+004  0.10128040E+004  0.10133190E+004  0.10146000E+004  0.10172850E+004  0.10197410E+004  0.10219720E+004  0.10234500E+004  0.10223890E+004  0.10209060E+004  0.10209450E+004  0.10206300E+004
0.99549701E+003  0.99545599E+003  0.99364301E+003  0.98965002E+003  0.98740900E+003  0.98712201E+003  0.98757800E+003  0.98938000E+003  0.99239398E+003  0.99610699E+003  0.99822400E+003  0.99928699E+003  0.10015150E+004  0.10036320E+004  0.10050610E+004  0.10061400E+004  0.10081560E+004  0.10094050E+004  0.10089450E+004  0.10074730E+004  0.10062480E+004  0.10049040E+004  0.10042930E+004  0.10040320E+004  0.10036320E+004  0.10049820E+004  0.10093910E+004  0.10144330E+004  0.10150800E+004  0.10132010E+004  0.10113920E+004  0.10094820E+004  0.10059590E+004  0.10018290E+004  0.99929199E+003  0.99822498E+003  0.99950702E+003  0.10023820E+004  0.10083310E+004  0.10131460E+004  0.10153570E+004  0.10138700E+004  0.10093580E+004  0.10071890E+004  0.10104140E+004  0.10174580E+004  0.10219890E+004  0.10209070E+004  0.10157600E+004  0.10116990E+004  0.10075910E+004  0.10049840E+004  0.10063070E+004  0.10085680E+004  0.10094980E+004  0.10110220E+004  0.10135820E+004  0.10162330E+004  0.10189640E+004  0.10219100E+004  0.10227410E+004  0.10221140E+004  0.10230750E+004  0.10238080E+004
0.99220502E+003  0.99297302E+003  0.99174597E+003  0.98894397E+003  0.98637000E+003  0.98584302E+003  0.98745001E+003  0.99116803E+003  0.99560901E+003  0.99947900E+003  0.10018810E+004  0.10032880E+004  0.10048850E+004  0.10067510E+004  0.10073320E+004  0.10079090E+004  0.10088680E+004  0.10100290E+004  0.10094910E+004  0.10093380E+004  0.10088840E+004  0.10082860E+004  0.10077340E+004  0.10066930E+004  0.10049750E+004  0.10048570E+004  0.10090230E+004  0.10116630E+004  0.10098850E+004  0.10068200E+004  0.10043330E+004  0.10015030E+004  0.99831097E+003  0.99662500E+003  0.99726703E+003  0.99886401E+003  0.10007010E+004  0.10027790E+004  0.10057010E+004  0.10092220E+004  0.10100590E+004  0.10084480E+004  0.10052020E+004  0.10044930E+004  0.10114480E+004  0.10198050E+004  0.10232670E+004  0.10202910E+004  0.10146790E+004  0.10097230E+004  0.10059260E+004  0.10022960E+004  0.10021220E+004  0.10046120E+004  0.10061340E+004  0.10081250E+004  0.10117850E+004  0.10146510E+004  0.10169390E+004  0.10208330E+004  0.10229990E+004  0.10238920E+004  0.10248430E+004  0.10259070E+004
0.98916199E+003  0.98912903E+003  0.98955603E+003  0.98741803E+003  0.98528900E+003  0.98511798E+003  0.98718103E+003  0.99030200E+003  0.99446002E+003  0.99814099E+003  0.10016910E+004  0.10049370E+004  0.10067880E+004  0.10081410E+004  0.10080620E+004  0.10082670E+004  0.10084220E+004  0.10080600E+004  0.10091280E+004  0.10097260E+004  0.10097670E+004  0.10097600E+004  0.10099440E+004  0.10088670E+004  0.10074450E+004  0.10066730E+004  0.10081800E+004  0.10071470E+004  0.10023710E+004  0.99789398E+003  0.99540698E+003  0.99193500E+003  0.98917102E+003  0.99142297E+003  0.99351099E+003  0.99507202E+003  0.99767798E+003  0.10002400E+004  0.10027640E+004  0.10049240E+004  0.10043010E+004  0.10029850E+004  0.10000000E+004  0.10013640E+004  0.10110680E+004  0.10195140E+004  0.10211360E+004  0.10192520E+004  0.10142630E+004  0.10086870E+004  0.10044710E+004  0.10009440E+004  0.10009110E+004  0.10025110E+004  0.10041850E+004  0.10070940E+004  0.10113940E+004  0.10146110E+004  0.10169920E+004  0.10201260E+004  0.10242340E+004  0.10261930E+004  0.10262260E+004  0.10254850E+004
0.98739600E+003  0.98690100E+003  0.98696002E+003  0.98583502E+003  0.98361603E+003  0.98339502E+003  0.98512201E+003  0.98769299E+003  0.99144800E+003  0.99469000E+003  0.99878900E+003  0.10030250E+004  0.10058370E+004  0.10065940E+004  0.10067610E+004  0.10072090E+004  0.10068260E+004  0.10063200E+004  0.10077300E+004  0.10097180E+004  0.10104330E+004  0.10103770E+004  0.10095960E+004  0.10088630E+004  0.10077370E+004  0.10066150E+004  0.10049100E+004  0.10021980E+004  0.99746698E+003  0.99359802E+003  0.99087402E+003  0.98696100E+003  0.98544098E+003  0.98766998E+003  0.98878302E+003  0.98786298E+003  0.98937701E+003  0.99388599E+003  0.99922101E+003  0.10000490E+004  0.99864099E+003  0.99698901E+003  0.99702698E+003  0.10008110E+004  0.10096560E+004  0.10161240E+004  0.10175250E+004  0.10169360E+004  0.10135320E+004  0.10086530E+004  0.10037500E+004  0.10003960E+004  0.10001330E+004  0.10015250E+004  0.10043800E+004  0.10077370E+004  0.10116000E+004  0.10151470E+004  0.10177270E+004  0.10204080E+004  0.10250740E+004  0.10283500E+004  0.10273380E+004  0.10264570E+004
0.98465002E+003  0.98525500E+003  0.98570599E+003  0.98501898E+003  0.98284399E+003  0.98156403E+003  0.98250897E+003  0.98578198E+003  0.98955603E+003  0.99274402E+003  0.99598999E+003  0.99996198E+003  0.10029870E+004  0.10039840E+004  0.10048930E+004  0.10056790E+004  0.10051120E+004  0.10058190E+004  0.10076380E+004  0.10095290E+004  0.10108370E+004  0.10102910E+004  0.10082470E+004  0.10064450E+004  0.10059220E+004  0.10045810E+004  0.10020180E+004  0.99825000E+003  0.99382300E+003  0.99188098E+003  0.99100702E+003  0.98778998E+003  0.98627600E+003  0.98675702E+003  0.98564001E+003  0.98327197E+003  0.98331500E+003  0.98810101E+003  0.99407300E+003  0.99612500E+003  0.99506201E+003  0.99441498E+003  0.99590900E+003  0.10013060E+004  0.10080340E+004  0.10128230E+004  0.10142150E+004  0.10132590E+004  0.10110700E+004  0.10081650E+004  0.10031240E+004  0.99980701E+003  0.99968201E+003  0.10019600E+004  0.10054740E+004  0.10084990E+004  0.10116440E+004  0.10155160E+004  0.10183230E+004  0.10214390E+004  0.10252720E+004  0.10280450E+004  0.10276270E+004  0.10278500E+004
0.98285498E+003  0.98438800E+003  0.98577802E+003  0.98505103E+003  0.98300098E+003  0.98181897E+003  0.98250702E+003  0.98509302E+003  0.98842603E+003  0.99136401E+003  0.99375403E+003  0.99723401E+003  0.99973602E+003  0.10017940E+004  0.10042340E+004  0.10048490E+004  0.10039730E+004  0.10048450E+004  0.10068520E+004  0.10081840E+004  0.10086390E+004  0.10074770E+004  0.10065150E+004  0.10053500E+004  0.10039320E+004  0.10033020E+004  0.10002360E+004  0.99591400E+003  0.99163397E+003  0.99051801E+003  0.99162500E+003  0.99056598E+003  0.98856799E+003  0.98741699E+003  0.98518597E+003  0.98205902E+003  0.98142401E+003  0.98472601E+003  0.98994702E+003  0.99361298E+003  0.99419098E+003  0.99451801E+003  0.99673602E+003  0.10011820E+004  0.10067460E+004  0.10100390E+004  0.10108320E+004  0.10087740E+004  0.10078380E+004  0.10064120E+004  0.10026430E+004  0.10003690E+004  0.10011690E+004  0.10028400E+004  0.10046790E+004  0.10066570E+004  0.10098050E+004  0.10143350E+004  0.10175890E+004  0.10199740E+004  0.10229070E+004  0.10255060E+004  0.10265210E+004  0.10274230E+004
0.98409198E+003  0.98549701E+003  0.98612000E+003  0.98536798E+003  0.98381500E+003  0.98299402E+003  0.98352802E+003  0.98522900E+003  0.98747803E+003  0.98995001E+003  0.99235400E+003  0.99424200E+003  0.99729102E+003  0.10006950E+004  0.10033670E+004  0.10043170E+004  0.10032540E+004  0.10036960E+004  0.10041940E+004  0.10039710E+004  0.10024370E+004  0.10007870E+004  0.10023040E+004  0.10033520E+004  0.10023690E+004  0.10012100E+004  0.99935999E+003  0.99483197E+003  0.99047803E+003  0.99038000E+003  0.99238501E+003  0.99237402E+003  0.99030298E+003  0.98808002E+003  0.98471399E+003  0.98172302E+003  0.98177399E+003  0.98515100E+003  0.98970001E+003  0.99348199E+003  0.99419397E+003  0.99435699E+003  0.99693597E+003  0.10010540E+004  0.10050250E+004  0.10077310E+004  0.10067490E+004  0.10055440E+004  0.10049170E+004  0.10045260E+004  0.10031210E+004  0.10019450E+004  0.10017930E+004  0.10017060E+004  0.10023890E+004  0.10039720E+004  0.10074740E+004  0.10116530E+004  0.10148590E+004  0.10165650E+004  0.10180230E+004  0.10209790E+004  0.10233220E+004  0.10244590E+004
0.98610999E+003  0.98718597E+003  0.98666199E+003  0.98534998E+003  0.98436298E+003  0.98338300E+003  0.98332898E+003  0.98489099E+003  0.98761902E+003  0.98963800E+003  0.99106702E+003  0.99276099E+003  0.99628198E+003  0.99962903E+003  0.10012520E+004  0.10011230E+004  0.10014630E+004  0.10019830E+004  0.10005840E+004  0.99769000E+003  0.99495599E+003  0.99372699E+003  0.99601703E+003  0.99817102E+003  0.99937299E+003  0.99940302E+003  0.99745001E+003  0.99432703E+003  0.99075897E+003  0.99073499E+003  0.99283600E+003  0.99295099E+003  0.99153699E+003  0.98901501E+003  0.98532501E+003  0.98303998E+003  0.98401099E+003  0.98761700E+003  0.99221198E+003  0.99429901E+003  0.99433801E+003  0.99406097E+003  0.99636700E+003  0.10000430E+004  0.10046940E+004  0.10061030E+004  0.10043470E+004  0.10029800E+004  0.10030750E+004  0.10033570E+004  0.10028750E+004  0.10011450E+004  0.10000240E+004  0.10000790E+004  0.10009670E+004  0.10026400E+004  0.10050590E+004  0.10085780E+004  0.10117700E+004  0.10133370E+004  0.10146370E+004  0.10170260E+004  0.10188200E+004  0.10200890E+004
0.98715399E+003  0.98820001E+003  0.98704797E+003  0.98546600E+003  0.98591803E+003  0.98479901E+003  0.98351898E+003  0.98506403E+003  0.98731299E+003  0.98905103E+003  0.99015997E+003  0.99232098E+003  0.99595801E+003  0.99824103E+003  0.99820801E+003  0.99770398E+003  0.99833301E+003  0.99918402E+003  0.99707098E+003  0.99323102E+003  0.99083899E+003  0.99099597E+003  0.99200598E+003  0.99384900E+003  0.99632501E+003  0.99732800E+003  0.99568799E+003  0.99289301E+003  0.99168597E+003  0.99241101E+003  0.99343701E+003  0.99397803E+003  0.99286902E+003  0.99093201E+003  0.98859198E+003  0.98749298E+003  0.98812299E+003  0.99008698E+003  0.99301801E+003  0.99385498E+003  0.99276599E+003  0.99307001E+003  0.99538397E+003  0.99954901E+003  0.10038690E+004  0.10055140E+004  0.10038250E+004  0.10020650E+004  0.10008180E+004  0.10009350E+004  0.10001990E+004  0.99795599E+003  0.99772803E+003  0.10004560E+004  0.10018570E+004  0.10020580E+004  0.10032150E+004  0.10065310E+004  0.10102200E+004  0.10125960E+004  0.10141820E+004  0.10152660E+004  0.10162740E+004  0.10181540E+004
0.98650098E+003  0.98783398E+003  0.98714697E+003  0.98665503E+003  0.98740601E+003  0.98753699E+003  0.98646002E+003  0.98618103E+003  0.98701001E+003  0.98809003E+003  0.98945801E+003  0.99255902E+003  0.99668597E+003  0.99843103E+003  0.99712201E+003  0.99567297E+003  0.99574597E+003  0.99584802E+003  0.99392499E+003  0.99148999E+003  0.99052399E+003  0.99054999E+003  0.99054498E+003  0.99223901E+003  0.99507202E+003  0.99588397E+003  0.99380603E+003  0.99167700E+003  0.99283002E+003  0.99405499E+003  0.99490698E+003  0.99492603E+003  0.99453802E+003  0.99349902E+003  0.99293103E+003  0.99334601E+003  0.99257300E+003  0.99079401E+003  0.99104498E+003  0.99156799E+003  0.98977301E+003  0.98983197E+003  0.99271802E+003  0.99757599E+003  0.10025020E+004  0.10039690E+004  0.10029560E+004  0.10014460E+004  0.99942902E+003  0.99810199E+003  0.99679303E+003  0.99538300E+003  0.99660498E+003  0.10004380E+004  0.10025980E+004  0.10031430E+004  0.10031660E+004  0.10051390E+004  0.10086280E+004  0.10114930E+004  0.10134390E+004  0.10142510E+004  0.10160650E+004  0.10180370E+004
0.98498798E+003  0.98645502E+003  0.98662799E+003  0.98712299E+003  0.98854901E+003  0.98933398E+003  0.98892700E+003  0.98845599E+003  0.98798999E+003  0.98838000E+003  0.99038702E+003  0.99340100E+003  0.99729999E+003  0.99847699E+003  0.99696399E+003  0.99446802E+003  0.99335699E+003  0.99283197E+003  0.99071399E+003  0.98962500E+003  0.99029199E+003  0.99024200E+003  0.98967499E+003  0.99163702E+003  0.99441101E+003  0.99522101E+003  0.99401099E+003  0.99303900E+003  0.99492200E+003  0.99647699E+003  0.99701703E+003  0.99750500E+003  0.99707501E+003  0.99679401E+003  0.99649103E+003  0.99617999E+003  0.99368701E+003  0.99003601E+003  0.98911200E+003  0.98912799E+003  0.98729199E+003  0.98655200E+003  0.98931500E+003  0.99452100E+003  0.99997601E+003  0.10023840E+004  0.10029850E+004  0.10011550E+004  0.99961603E+003  0.99829999E+003  0.99692999E+003  0.99591302E+003  0.99692902E+003  0.99959900E+003  0.10022600E+004  0.10033810E+004  0.10026200E+004  0.10025800E+004  0.10057590E+004  0.10094580E+004  0.10106610E+004  0.10123330E+004  0.10154130E+004  0.10182940E+004
0.98490900E+003  0.98576099E+003  0.98553900E+003  0.98594702E+003  0.98821198E+003  0.98933698E+003  0.98900299E+003  0.98902698E+003  0.98899597E+003  0.98960699E+003  0.99162299E+003  0.99464502E+003  0.99633899E+003  0.99719702E+003  0.99585797E+003  0.99338800E+003  0.99267999E+003  0.99074902E+003  0.98828601E+003  0.98817902E+003  0.98973199E+003  0.99118298E+003  0.99072198E+003  0.99165002E+003  0.99433398E+003  0.99580603E+003  0.99633801E+003  0.99757898E+003  0.99948602E+003  0.10012550E+004  0.10015660E+004  0.10017130E+004  0.10009290E+004  0.99890100E+003  0.99675800E+003  0.99496301E+003  0.99206201E+003  0.98898700E+003  0.98813501E+003  0.98725000E+003  0.98586798E+003  0.98568500E+003  0.98719397E+003  0.99160797E+003  0.99732202E+003  0.10016630E+004  0.10036900E+004  0.10031530E+004  0.10013330E+004  0.10007470E+004  0.99915002E+003  0.99791400E+003  0.99796503E+003  0.99863098E+003  0.10003510E+004  0.10017240E+004  0.10000400E+004  0.99965802E+003  0.10034580E+004  0.10061310E+004  0.10073780E+004  0.10093190E+004  0.10130190E+004  0.10156090E+004
0.98638300E+003  0.98641602E+003  0.98531000E+003  0.98533698E+003  0.98805701E+003  0.98842798E+003  0.98728101E+003  0.98728400E+003  0.98809900E+003  0.98899701E+003  0.99162000E+003  0.99422900E+003  0.99553699E+003  0.99558301E+003  0.99535199E+003  0.99387000E+003  0.99268103E+003  0.99100403E+003  0.98845898E+003  0.98839099E+003  0.99029102E+003  0.99163599E+003  0.99138300E+003  0.99233899E+003  0.99530902E+003  0.99821997E+003  0.10001950E+004  0.10027340E+004  0.10054280E+004  0.10060630E+004  0.10059470E+004  0.10053380E+004  0.10028990E+004  0.99905902E+003  0.99616302E+003  0.99398901E+003  0.99088599E+003  0.98791101E+003  0.98699902E+003  0.98634497E+003  0.98527600E+003  0.98512598E+003  0.98655701E+003  0.99034003E+003  0.99571600E+003  0.10010110E+004  0.10036770E+004  0.10040150E+004  0.10027840E+004  0.10013790E+004  0.99969897E+003  0.99822498E+003  0.99744299E+003  0.99593500E+003  0.99648199E+003  0.99791302E+003  0.99789600E+003  0.99760999E+003  0.99926202E+003  0.10014480E+004  0.10029640E+004  0.10052110E+004  0.10077670E+004  0.10093340E+004
0.98731500E+003  0.98695898E+003  0.98625000E+003  0.98750000E+003  0.98861499E+003  0.98833502E+003  0.98656702E+003  0.98583301E+003  0.98641803E+003  0.98790503E+003  0.99115997E+003  0.99361401E+003  0.99444800E+003  0.99537000E+003  0.99585901E+003  0.99546301E+003  0.99403302E+003  0.99247198E+003  0.99107098E+003  0.99043799E+003  0.99114301E+003  0.99167700E+003  0.99133801E+003  0.99271100E+003  0.99684100E+003  0.10004630E+004  0.10032820E+004  0.10064840E+004  0.10094570E+004  0.10102250E+004  0.10099530E+004  0.10080500E+004  0.10049580E+004  0.10005060E+004  0.99640503E+003  0.99445001E+003  0.99116302E+003  0.98714600E+003  0.98567102E+003  0.98540002E+003  0.98501898E+003  0.98520099E+003  0.98713800E+003  0.98987701E+003  0.99461603E+003  0.99966199E+003  0.10022480E+004  0.10025410E+004  0.10012570E+004  0.99843597E+003  0.99618701E+003  0.99623401E+003  0.99628802E+003  0.99392902E+003  0.99283398E+003  0.99443201E+003  0.99606097E+003  0.99587799E+003  0.99503900E+003  0.99607001E+003  0.99749597E+003  0.99847302E+003  0.99999799E+003  0.10017750E+004
0.98742798E+003  0.98732501E+003  0.98808899E+003  0.98923798E+003  0.98976001E+003  0.98944202E+003  0.98767902E+003  0.98616199E+003  0.98635999E+003  0.98814099E+003  0.99177600E+003  0.99461798E+003  0.99529199E+003  0.99589502E+003  0.99704999E+003  0.99724701E+003  0.99582599E+003  0.99401501E+003  0.99348297E+003  0.99277002E+003  0.99244702E+003  0.99275702E+003  0.99316400E+003  0.99471600E+003  0.99880603E+003  0.10024980E+004  0.10044140E+004  0.10075290E+004  0.10112810E+004  0.10139300E+004  0.10134080E+004  0.10117020E+004  0.10087480E+004  0.10031730E+004  0.99775500E+003  0.99431201E+003  0.99007703E+003  0.98554700E+003  0.98273999E+003  0.98302002E+003  0.98400598E+003  0.98532300E+003  0.98678003E+003  0.98851398E+003  0.99183398E+003  0.99576099E+003  0.99786200E+003  0.99857703E+003  0.99778003E+003  0.99446802E+003  0.99236298E+003  0.99384003E+003  0.99542603E+003  0.99479797E+003  0.99257703E+003  0.99305200E+003  0.99478699E+003  0.99412903E+003  0.99174298E+003  0.99140399E+003  0.99203802E+003  0.99197302E+003  0.99261401E+003  0.99569501E+003
0.98801703E+003  0.98947699E+003  0.99069397E+003  0.99059302E+003  0.99065997E+003  0.99028101E+003  0.98878400E+003  0.98728400E+003  0.98734399E+003  0.98948401E+003  0.99292798E+003  0.99650800E+003  0.99698102E+003  0.99729199E+003  0.99842297E+003  0.99872302E+003  0.99698602E+003  0.99495502E+003  0.99404498E+003  0.99450897E+003  0.99486102E+003  0.99539203E+003  0.99657397E+003  0.99848499E+003  0.10008830E+004  0.10034640E+004  0.10048650E+004  0.10073790E+004  0.10127770E+004  0.10165090E+004  0.10156570E+004  0.10133920E+004  0.10110610E+004  0.10053320E+004  0.99710498E+003  0.99087299E+003  0.98560602E+003  0.98109900E+003  0.97847101E+003  0.97851202E+003  0.98087402E+003  0.98408698E+003  0.98540100E+003  0.98598602E+003  0.98823700E+003  0.99029401E+003  0.99140802E+003  0.99268701E+003  0.99310797E+003  0.99198199E+003  0.99100702E+003  0.99184802E+003  0.99398297E+003  0.99340302E+003  0.99260797E+003  0.99362799E+003  0.99414801E+003  0.99257898E+003  0.98894397E+003  0.98668701E+003  0.98748700E+003  0.98771600E+003  0.98842603E+003  0.99109900E+003
0.98976599E+003  0.99190802E+003  0.99382800E+003  0.99401300E+003  0.99237201E+003  0.99066602E+003  0.98878601E+003  0.98762000E+003  0.98843903E+003  0.99094702E+003  0.99476599E+003  0.99783398E+003  0.99963000E+003  0.10002660E+004  0.99987500E+003  0.99922803E+003  0.99752802E+003  0.99536401E+003  0.99588397E+003  0.99724799E+003  0.99912500E+003  0.99984399E+003  0.10011750E+004  0.10022430E+004  0.10024970E+004  0.10030600E+004  0.10048760E+004  0.10094070E+004  0.10150240E+004  0.10175630E+004  0.10150120E+004  0.10109510E+004  0.10079810E+004  0.10026590E+004  0.99342798E+003  0.98535400E+003  0.98045001E+003  0.97692401E+003  0.97582397E+003  0.97627698E+003  0.97885901E+003  0.98202399E+003  0.98487598E+003  0.98597198E+003  0.98669702E+003  0.98638800E+003  0.98606000E+003  0.98691998E+003  0.98817102E+003  0.98936499E+003  0.98999799E+003  0.98990997E+003  0.98988800E+003  0.98941803E+003  0.98997198E+003  0.99240100E+003  0.99302502E+003  0.98959802E+003  0.98616699E+003  0.98531500E+003  0.98510901E+003  0.98490503E+003  0.98569098E+003  0.98790503E+003
0.99155798E+003  0.99359399E+003  0.99667700E+003  0.99726801E+003  0.99489899E+003  0.99076801E+003  0.98872198E+003  0.98915198E+003  0.98980200E+003  0.99212500E+003  0.99582501E+003  0.99877600E+003  0.10019730E+004  0.10033110E+004  0.10023560E+004  0.10001900E+004  0.99795898E+003  0.99692700E+003  0.99830902E+003  0.10017490E+004  0.10043120E+004  0.10054550E+004  0.10056630E+004  0.10051360E+004  0.10035290E+004  0.10033240E+004  0.10055600E+004  0.10102910E+004  0.10152530E+004  0.10150440E+004  0.10114310E+004  0.10055890E+004  0.10008170E+004  0.99654498E+003  0.99025201E+003  0.98267200E+003  0.97826703E+003  0.97695300E+003  0.97666803E+003  0.97756897E+003  0.97856897E+003  0.98151703E+003  0.98487598E+003  0.98690002E+003  0.98576898E+003  0.98362598E+003  0.98221600E+003  0.98249103E+003  0.98418402E+003  0.98669397E+003  0.98877899E+003  0.98843298E+003  0.98603101E+003  0.98475299E+003  0.98595300E+003  0.98849103E+003  0.98894098E+003  0.98602698E+003  0.98458600E+003  0.98555902E+003  0.98537402E+003  0.98398401E+003  0.98426599E+003  0.98566400E+003
0.99224298E+003  0.99517401E+003  0.99742603E+003  0.99768701E+003  0.99510999E+003  0.99112701E+003  0.98898798E+003  0.98986298E+003  0.99088000E+003  0.99234900E+003  0.99519202E+003  0.99889099E+003  0.10018430E+004  0.10037630E+004  0.10039660E+004  0.10023790E+004  0.10007060E+004  0.10001090E+004  0.10015860E+004  0.10059910E+004  0.10083090E+004  0.10091990E+004  0.10083330E+004  0.10057780E+004  0.10037700E+004  0.10039750E+004  0.10057620E+004  0.10092000E+004  0.10113420E+004  0.10105540E+004  0.10069500E+004  0.10015390E+004  0.99610797E+003  0.99279901E+003  0.98744501E+003  0.98174597E+003  0.97928900E+003  0.97785901E+003  0.97789600E+003  0.97792999E+003  0.97835602E+003  0.98092499E+003  0.98385602E+003  0.98509601E+003  0.98320099E+003  0.98009198E+003  0.97926398E+003  0.97986798E+003  0.98119897E+003  0.98471698E+003  0.98763898E+003  0.98697601E+003  0.98367102E+003  0.98171997E+003  0.98303699E+003  0.98555298E+003  0.98527301E+003  0.98290002E+003  0.98281598E+003  0.98466199E+003  0.98495099E+003  0.98447101E+003  0.98351801E+003  0.98356598E+003
0.99377698E+003  0.99592999E+003  0.99785498E+003  0.99752502E+003  0.99465601E+003  0.99068402E+003  0.98937598E+003  0.99004797E+003  0.99018701E+003  0.99125500E+003  0.99373700E+003  0.99700299E+003  0.10000900E+004  0.10024280E+004  0.10041380E+004  0.10037240E+004  0.10034610E+004  0.10033300E+004  0.10050330E+004  0.10085810E+004  0.10106720E+004  0.10105140E+004  0.10086450E+004  0.10051400E+004  0.10028040E+004  0.10031180E+004  0.10051450E+004  0.10067700E+004  0.10083950E+004  0.10077310E+004  0.10051950E+004  0.10009760E+004  0.99695203E+003  0.99246899E+003  0.98625800E+003  0.98196997E+003  0.98128601E+003  0.98023199E+003  0.97808600E+003  0.97804797E+003  0.97865698E+003  0.97976001E+003  0.98107300E+003  0.98110400E+003  0.97935303E+003  0.97659003E+003  0.97675800E+003  0.97852899E+003  0.98029199E+003  0.98290100E+003  0.98505902E+003  0.98483698E+003  0.98262500E+003  0.98139697E+003  0.98331799E+003  0.98494501E+003  0.98331598E+003  0.98147699E+003  0.98084698E+003  0.98192700E+003  0.98390698E+003  0.98381897E+003  0.98239801E+003  0.98114099E+003
0.99628601E+003  0.99704700E+003  0.99904199E+003  0.99898602E+003  0.99635797E+003  0.99189001E+003  0.99057898E+003  0.99037201E+003  0.98960303E+003  0.99057599E+003  0.99280298E+003  0.99506000E+003  0.99805298E+003  0.10023010E+004  0.10044650E+004  0.10044970E+004  0.10042000E+004  0.10048860E+004  0.10063970E+004  0.10093520E+004  0.10108570E+004  0.10102390E+004  0.10085830E+004  0.10054490E+004  0.10027010E+004  0.10017450E+004  0.10029350E+004  0.10050840E+004  0.10065780E+004  0.10071130E+004  0.10057170E+004  0.10027560E+004  0.99872498E+003  0.99360797E+003  0.98786902E+003  0.98445801E+003  0.98490399E+003  0.98384998E+003  0.98002399E+003  0.97772699E+003  0.97831403E+003  0.97868701E+003  0.97897101E+003  0.97842297E+003  0.97614001E+003  0.97401099E+003  0.97450897E+003  0.97737701E+003  0.98033099E+003  0.98232202E+003  0.98328003E+003  0.98328601E+003  0.98282501E+003  0.98301001E+003  0.98454401E+003  0.98382501E+003  0.98228101E+003  0.98097400E+003  0.98044098E+003  0.98106500E+003  0.98221802E+003  0.98256598E+003  0.98039398E+003  0.97845599E+003
0.99775201E+003  0.99851001E+003  0.99958099E+003  0.10006870E+004  0.99779102E+003  0.99371399E+003  0.99195001E+003  0.99101599E+003  0.99046600E+003  0.99112097E+003  0.99312000E+003  0.99524799E+003  0.99854199E+003  0.10027570E+004  0.10064710E+004  0.10069330E+004  0.10058500E+004  0.10058560E+004  0.10069330E+004  0.10088070E+004  0.10093270E+004  0.10087680E+004  0.10079000E+004  0.10065110E+004  0.10045360E+004  0.10024380E+004  0.10023800E+004  0.10038930E+004  0.10048830E+004  0.10057930E+004  0.10052730E+004  0.10027320E+004  0.99878198E+003  0.99424298E+003  0.99020300E+003  0.98744501E+003  0.98709900E+003  0.98613800E+003  0.98188098E+003  0.97953101E+003  0.97834601E+003  0.97740503E+003  0.97786102E+003  0.97789001E+003  0.97560498E+003  0.97373798E+003  0.97407898E+003  0.97576501E+003  0.97879602E+003  0.98134601E+003  0.98270300E+003  0.98394702E+003  0.98430902E+003  0.98478699E+003  0.98468500E+003  0.98332397E+003  0.98173901E+003  0.98079199E+003  0.98094702E+003  0.98152197E+003  0.98189301E+003  0.98153400E+003  0.97944202E+003  0.97829999E+003
0.99821399E+003  0.99871503E+003  0.99977301E+003  0.99970300E+003  0.99798798E+003  0.99476501E+003  0.99285797E+003  0.99195898E+003  0.99158600E+003  0.99246503E+003  0.99391803E+003  0.99661102E+003  0.99944000E+003  0.10024430E+004  0.10059750E+004  0.10081830E+004  0.10089420E+004  0.10082950E+004  0.10081190E+004  0.10080570E+004  0.10072710E+004  0.10066290E+004  0.10069190E+004  0.10069000E+004  0.10050470E+004  0.10028300E+004  0.10023990E+004  0.10033990E+004  0.10031560E+004  0.10025760E+004  0.10022790E+004  0.10013390E+004  0.99796002E+003  0.99414301E+003  0.99059198E+003  0.98857397E+003  0.98756598E+003  0.98640198E+003  0.98459802E+003  0.98267102E+003  0.98063501E+003  0.97808099E+003  0.97763702E+003  0.97783899E+003  0.97648700E+003  0.97534601E+003  0.97521198E+003  0.97580402E+003  0.97706403E+003  0.97938898E+003  0.98281702E+003  0.98614899E+003  0.98700598E+003  0.98601703E+003  0.98457501E+003  0.98256299E+003  0.98155701E+003  0.98231897E+003  0.98243298E+003  0.98236700E+003  0.98275800E+003  0.98266400E+003  0.98141498E+003  0.98041199E+003
0.99922601E+003  0.99965002E+003  0.99911700E+003  0.99838898E+003  0.99688000E+003  0.99511102E+003  0.99335602E+003  0.99177100E+003  0.99153003E+003  0.99293903E+003  0.99468799E+003  0.99772198E+003  0.10005740E+004  0.10017100E+004  0.10029230E+004  0.10062620E+004  0.10092930E+004  0.10093400E+004  0.10081250E+004  0.10075330E+004  0.10061980E+004  0.10050260E+004  0.10055660E+004  0.10053700E+004  0.10027150E+004  0.10011640E+004  0.10014960E+004  0.10015880E+004  0.10010750E+004  0.99952600E+003  0.99937701E+003  0.99915997E+003  0.99725800E+003  0.99354999E+003  0.98967297E+003  0.98767902E+003  0.98782703E+003  0.98729999E+003  0.98688202E+003  0.98556201E+003  0.98235999E+003  0.97899902E+003  0.97739697E+003  0.97723901E+003  0.97637799E+003  0.97580603E+003  0.97658002E+003  0.97645801E+003  0.97664697E+003  0.97907202E+003  0.98426501E+003  0.98886700E+003  0.98985602E+003  0.98741803E+003  0.98453302E+003  0.98169800E+003  0.98150201E+003  0.98396698E+003  0.98568103E+003  0.98540302E+003  0.98516498E+003  0.98514502E+003  0.98415302E+003  0.98362701E+003
0.10014110E+004  0.10012600E+004  0.99971100E+003  0.99811200E+003  0.99577100E+003  0.99325201E+003  0.99181000E+003  0.99007501E+003  0.99015198E+003  0.99296198E+003  0.99606799E+003  0.99934601E+003  0.10028860E+004  0.10030340E+004  0.10025650E+004  0.10050160E+004  0.10070800E+004  0.10073750E+004  0.10073530E+004  0.10066730E+004  0.10049670E+004  0.10038590E+004  0.10038040E+004  0.10031870E+004  0.10017320E+004  0.10009400E+004  0.10015090E+004  0.10016660E+004  0.10001280E+004  0.99770502E+003  0.99655798E+003  0.99657202E+003  0.99591302E+003  0.99326599E+003  0.98885901E+003  0.98673602E+003  0.98806000E+003  0.98864600E+003  0.98836298E+003  0.98609100E+003  0.98188800E+003  0.97883002E+003  0.97734003E+003  0.97663501E+003  0.97492700E+003  0.97480603E+003  0.97606598E+003  0.97642499E+003  0.97608698E+003  0.97926501E+003  0.98601202E+003  0.99089801E+003  0.99165100E+003  0.98976300E+003  0.98649799E+003  0.98385797E+003  0.98337903E+003  0.98500800E+003  0.98823798E+003  0.98971198E+003  0.98895502E+003  0.98782397E+003  0.98703900E+003  0.98691901E+003
0.10024870E+004  0.10016340E+004  0.10006910E+004  0.99888098E+003  0.99577002E+003  0.99253998E+003  0.99008398E+003  0.98874500E+003  0.98998102E+003  0.99413300E+003  0.99761798E+003  0.10012050E+004  0.10039760E+004  0.10050190E+004  0.10061430E+004  0.10075370E+004  0.10069400E+004  0.10059670E+004  0.10069750E+004  0.10066630E+004  0.10050240E+004  0.10038190E+004  0.10034490E+004  0.10026400E+004  0.10022220E+004  0.10017610E+004  0.10026520E+004  0.10024030E+004  0.99970801E+003  0.99644800E+003  0.99525000E+003  0.99528003E+003  0.99467102E+003  0.99351001E+003  0.98971100E+003  0.98739502E+003  0.98779401E+003  0.98789801E+003  0.98661499E+003  0.98442297E+003  0.98085199E+003  0.97793402E+003  0.97745099E+003  0.97578699E+003  0.97346503E+003  0.97363098E+003  0.97536499E+003  0.97601001E+003  0.97693701E+003  0.98046997E+003  0.98658398E+003  0.99081097E+003  0.99197498E+003  0.99121301E+003  0.98922198E+003  0.98844397E+003  0.98739801E+003  0.98740802E+003  0.98974402E+003  0.99083698E+003  0.99115399E+003  0.99061102E+003  0.98910699E+003  0.98988501E+003
0.10023410E+004  0.10009150E+004  0.10005030E+004  0.99862598E+003  0.99592297E+003  0.99387097E+003  0.99062701E+003  0.98882098E+003  0.99097400E+003  0.99487598E+003  0.99923499E+003  0.10031050E+004  0.10066000E+004  0.10086060E+004  0.10097800E+004  0.10093800E+004  0.10077120E+004  0.10068910E+004  0.10073020E+004  0.10074310E+004  0.10058390E+004  0.10049520E+004  0.10045320E+004  0.10039050E+004  0.10031560E+004  0.10029120E+004  0.10018820E+004  0.10007860E+004  0.99782300E+003  0.99502100E+003  0.99447998E+003  0.99518402E+003  0.99496802E+003  0.99385699E+003  0.99139203E+003  0.98869098E+003  0.98736102E+003  0.98524799E+003  0.98278601E+003  0.98116199E+003  0.97840802E+003  0.97635101E+003  0.97633099E+003  0.97440698E+003  0.97162701E+003  0.97346899E+003  0.97615601E+003  0.97752301E+003  0.97981299E+003  0.98253198E+003  0.98652899E+003  0.99048700E+003  0.99161298E+003  0.99096997E+003  0.99061200E+003  0.99106702E+003  0.99105200E+003  0.99068903E+003  0.99065698E+003  0.99144299E+003  0.99110199E+003  0.99044397E+003  0.99042700E+003  0.99134601E+003
0.10020220E+004  0.10002260E+004  0.99874103E+003  0.99595099E+003  0.99447601E+003  0.99440399E+003  0.99171503E+003  0.98970099E+003  0.99146899E+003  0.99524103E+003  0.99973499E+003  0.10059420E+004  0.10099280E+004  0.10107450E+004  0.10097610E+004  0.10080630E+004  0.10073090E+004  0.10075110E+004  0.10078830E+004  0.10069970E+004  0.10060320E+004  0.10055100E+004  0.10044870E+004  0.10038190E+004  0.10041620E+004  0.10023770E+004  0.99962000E+003  0.99745300E+003  0.99551001E+003  0.99357098E+003  0.99350702E+003  0.99433197E+003  0.99408698E+003  0.99342200E+003  0.99269702E+003  0.99081598E+003  0.98737701E+003  0.98359100E+003  0.98061102E+003  0.97810199E+003  0.97620898E+003  0.97450403E+003  0.97469800E+003  0.97308801E+003  0.97183197E+003  0.97489697E+003  0.97820001E+003  0.98003101E+003  0.98229999E+003  0.98435498E+003  0.98715698E+003  0.99033197E+003  0.99168799E+003  0.99066602E+003  0.99070502E+003  0.99116803E+003  0.99215900E+003  0.99222900E+003  0.99199500E+003  0.99122400E+003  0.98998102E+003  0.98942700E+003  0.98970599E+003  0.99163300E+003
0.10027020E+004  0.99998901E+003  0.99673999E+003  0.99372900E+003  0.99291498E+003  0.99433899E+003  0.99359601E+003  0.99191803E+003  0.99237799E+003  0.99514301E+003  0.10002770E+004  0.10053070E+004  0.10085770E+004  0.10083370E+004  0.10062390E+004  0.10049050E+004  0.10051470E+004  0.10064540E+004  0.10060390E+004  0.10056400E+004  0.10062510E+004  0.10055440E+004  0.10032060E+004  0.10029950E+004  0.10028890E+004  0.99973401E+003  0.99634003E+003  0.99443903E+003  0.99358002E+003  0.99327802E+003  0.99296600E+003  0.99293799E+003  0.99305200E+003  0.99330798E+003  0.99366602E+003  0.99222699E+003  0.98885498E+003  0.98408002E+003  0.97997498E+003  0.97691998E+003  0.97499701E+003  0.97434399E+003  0.97358600E+003  0.97304700E+003  0.97328101E+003  0.97578101E+003  0.97846301E+003  0.98128998E+003  0.98398700E+003  0.98587701E+003  0.98722498E+003  0.98934003E+003  0.99066998E+003  0.99145697E+003  0.99094702E+003  0.99125598E+003  0.99179901E+003  0.99105798E+003  0.99071399E+003  0.99038000E+003  0.98921503E+003  0.98844000E+003  0.98882501E+003  0.99090002E+003
0.10043210E+004  0.10012650E+004  0.99717700E+003  0.99393402E+003  0.99313800E+003  0.99470001E+003  0.99515698E+003  0.99452100E+003  0.99454797E+003  0.99560699E+003  0.99967603E+003  0.10042580E+004  0.10054460E+004  0.10037420E+004  0.10018950E+004  0.10008090E+004  0.10012990E+004  0.10014560E+004  0.10015860E+004  0.10035090E+004  0.10054380E+004  0.10047060E+004  0.10022790E+004  0.10006300E+004  0.99887299E+003  0.99747601E+003  0.99426202E+003  0.99149799E+003  0.99160400E+003  0.99216998E+003  0.99243903E+003  0.99280200E+003  0.99409399E+003  0.99471002E+003  0.99442700E+003  0.99325403E+003  0.98950800E+003  0.98447699E+003  0.97989099E+003  0.97605402E+003  0.97453400E+003  0.97409003E+003  0.97290698E+003  0.97231799E+003  0.97301599E+003  0.97415900E+003  0.97707202E+003  0.98087903E+003  0.98359497E+003  0.98486798E+003  0.98618799E+003  0.98777600E+003  0.98932703E+003  0.99101202E+003  0.99164398E+003  0.99165503E+003  0.99095898E+003  0.98922601E+003  0.98909302E+003  0.99022998E+003  0.98924701E+003  0.98806897E+003  0.98815802E+003  0.99145099E+003
0.10056560E+004  0.10030250E+004  0.99893201E+003  0.99516302E+003  0.99397699E+003  0.99449200E+003  0.99492798E+003  0.99459198E+003  0.99509198E+003  0.99605701E+003  0.99929303E+003  0.10032870E+004  0.10038090E+004  0.10014900E+004  0.99850800E+003  0.99725897E+003  0.99709802E+003  0.99627899E+003  0.99719098E+003  0.10008780E+004  0.10041080E+004  0.10030080E+004  0.10006320E+004  0.99826202E+003  0.99597601E+003  0.99461298E+003  0.99226001E+003  0.98948798E+003  0.98933002E+003  0.98992401E+003  0.99062201E+003  0.99215997E+003  0.99401398E+003  0.99598700E+003  0.99594098E+003  0.99446503E+003  0.98996198E+003  0.98428302E+003  0.97928699E+003  0.97579901E+003  0.97435400E+003  0.97374402E+003  0.97241803E+003  0.97197998E+003  0.97227197E+003  0.97313202E+003  0.97551398E+003  0.97914398E+003  0.98153400E+003  0.98299597E+003  0.98441699E+003  0.98508099E+003  0.98738202E+003  0.99060199E+003  0.99248297E+003  0.99172198E+003  0.99022998E+003  0.98840198E+003  0.98860498E+003  0.98996899E+003  0.98904199E+003  0.98714697E+003  0.98837402E+003  0.99162598E+003
0.10046340E+004  0.10025820E+004  0.99933600E+003  0.99660797E+003  0.99519897E+003  0.99475201E+003  0.99380603E+003  0.99343799E+003  0.99365302E+003  0.99512701E+003  0.99718402E+003  0.10008760E+004  0.10034670E+004  0.10008470E+004  0.99640601E+003  0.99526398E+003  0.99436902E+003  0.99342798E+003  0.99542798E+003  0.99900500E+003  0.10011370E+004  0.10013730E+004  0.99984100E+003  0.99753003E+003  0.99499799E+003  0.99223297E+003  0.99003198E+003  0.98923798E+003  0.98887500E+003  0.98874402E+003  0.98938397E+003  0.99150403E+003  0.99405902E+003  0.99535303E+003  0.99660999E+003  0.99601398E+003  0.99137799E+003  0.98440503E+003  0.97961200E+003  0.97693903E+003  0.97503400E+003  0.97444098E+003  0.97472400E+003  0.97507098E+003  0.97438702E+003  0.97328400E+003  0.97412299E+003  0.97648901E+003  0.97982001E+003  0.98259003E+003  0.98349597E+003  0.98417200E+003  0.98660999E+003  0.99129303E+003  0.99482501E+003  0.99393903E+003  0.99088300E+003  0.98816101E+003  0.98824298E+003  0.98977802E+003  0.98884900E+003  0.98645001E+003  0.98684302E+003  0.98987299E+003
0.10012670E+004  0.10007800E+004  0.99964301E+003  0.99851501E+003  0.99688397E+003  0.99565802E+003  0.99455103E+003  0.99297998E+003  0.99305902E+003  0.99436200E+003  0.99603802E+003  0.99821899E+003  0.10006060E+004  0.99934198E+003  0.99592700E+003  0.99465302E+003  0.99330798E+003  0.99298199E+003  0.99467200E+003  0.99634003E+003  0.99775299E+003  0.99890302E+003  0.99863702E+003  0.99678802E+003  0.99533197E+003  0.99232001E+003  0.99113702E+003  0.99098999E+003  0.99069098E+003  0.99024902E+003  0.99062097E+003  0.99227600E+003  0.99471997E+003  0.99596301E+003  0.99664502E+003  0.99749597E+003  0.99369299E+003  0.98587402E+003  0.98127301E+003  0.97911603E+003  0.97678198E+003  0.97539899E+003  0.97690399E+003  0.97798199E+003  0.97708600E+003  0.97471899E+003  0.97267902E+003  0.97410699E+003  0.97788000E+003  0.98127002E+003  0.98375598E+003  0.98501599E+003  0.98670599E+003  0.99200500E+003  0.99665997E+003  0.99670898E+003  0.99351501E+003  0.99033197E+003  0.98909497E+003  0.98965002E+003  0.98867902E+003  0.98549402E+003  0.98458301E+003  0.98653198E+003
